# .PCD v0.7 - Point Cloud Data file format
VERSION 0.7
FIELDS x y z rgb
SIZE 4 4 4 4
TYPE F F F F
COUNT 1 1 1 1
WIDTH 1032
HEIGHT 1
VIEWPOINT 0 0 0 1 0 0 0
POINTS 1032
DATA ascii
-1.7740484 -0.48226142 2.1312747 7.3756504e-39
-1.8128684 -0.51337457 2.1313319 7.3756504e-39
-1.8528104 -0.54396009 2.1331799 7.3756504e-39
-1.8918158 -0.57485914 2.1336923 7.3756504e-39
-1.9311478 -0.60532105 2.1350815 7.3756504e-39
-1.9704237 -0.6367867 2.1351557 7.3756504e-39
-2.0099087 -0.66700876 2.1369994 7.3756504e-39
-2.0489101 -0.69790721 2.1375086 1.1155671e-38
-2.0719037 -0.72655368 2.1247327 1.4290323e-38
-1.0694669 -1.0000349 2.6238151 7.6460912e-39
-1.0923642 -0.97072089 2.602376 8.2914634e-39
-1.1180749 -0.93780482 2.5783029 8.291462e-39
-1.232578 -0.82264924 2.4185357 7.7361204e-39
-1.248096 -0.80276263 2.4040389 7.6435632e-39
-1.2752101 -0.76801538 2.3787088 7.4591692e-39
-1.3013 -0.73458076 2.3543358 7.3662519e-39
-1.3273344 -0.70121741 2.3300147 7.1818592e-39
-1.3542755 -0.66669166 2.304847 7.0893035e-39
-1.3811581 -0.63223958 2.2797368 6.9967477e-39
-1.4079821 -0.59786201 2.2546821 6.9045521e-39
-1.4347478 -0.56355941 2.229682 6.997105e-39
-1.4614551 -0.5293318 2.204736 6.9045493e-39
-1.4881042 -0.49517846 2.1798444 6.7201594e-39
-1.5146954 -0.46109939 2.1550074 6.7201594e-39
-1.541229 -0.42709422 2.130224 6.7205181e-39
-1.5677049 -0.39316297 2.105494 6.8127166e-39
-0.27589071 0.64377874 2.035419 7.3756504e-39
-0.30149782 0.63110793 2.045301 7.3756504e-39
-0.33865356 0.60267657 2.0470457 7.3756504e-39
-0.378093 0.57178456 2.0480039 7.3756504e-39
-0.41753137 0.54089361 2.0489626 7.3756504e-39
-0.45696867 0.51000303 2.0499201 7.3756504e-39
-0.49640477 0.47911304 2.0508771 7.3756504e-39
-0.53584087 0.44822377 2.0518353 7.3756504e-39
-0.57527542 0.41733503 2.0527921 9.8649324e-39
-0.61470962 0.38644683 2.0537498 1.4290323e-38
-0.65356302 0.35631239 2.055068 1.4290323e-38
-0.69162273 0.32650101 2.0559926 1.4290323e-38
-0.71708679 0.31431657 2.0663409 1.4290323e-38
-1.600468 -0.38475138 2.0803788 7.3745658e-39
-1.6382775 -0.41529596 2.0786057 7.3756504e-39
-1.6776909 -0.44616795 2.0795627 7.3756504e-39
-1.7171034 -0.47703886 2.0805202 7.3756504e-39
-1.7559488 -0.50716758 2.0818372 7.3756504e-39
-1.7945102 -0.53767061 2.0823994 7.3756504e-39
-1.8339206 -0.56853986 2.0833566 7.3756504e-39
-1.87333 -0.59940863 2.0843134 7.3756504e-39
-1.9127388 -0.6302768 2.0852704 7.3756504e-39
-1.9521469 -0.66114461 2.0862272 7.3756504e-39
-1.9915541 -0.69201136 2.0871847 7.3756504e-39
-2.0309606 -0.72287786 2.0881414 8.5741936e-39
-2.0682054 -0.75301766 2.0878339 1.4290323e-38
-1.0644939 -1.0380518 2.5755594 7.1847515e-39
-1.0880829 -1.0078222 2.5535226 8.0145136e-39
-1.1145689 -0.97387993 2.5287793 8.0145122e-39
-1.1409981 -0.94001055 2.5040894 7.9219564e-39
-1.1683471 -0.9049623 2.4785399 7.9215949e-39
-1.194663 -0.87123799 2.4539559 7.8290391e-39
-1.2189798 -0.84007573 2.4312391 7.7364819e-39
-1.3796955 -0.66728711 2.2256436 6.8119977e-39
-1.4033995 -0.63687658 2.203557 6.8119977e-39
-1.4309974 -0.60146999 2.1778412 6.9045507e-39
-1.4575516 -0.5674026 2.1530986 6.812355e-39
-1.4840477 -0.53340983 2.1284103 6.7201594e-39
-1.5104871 -0.49948967 2.1037745 6.6279652e-39
-1.5368686 -0.46564364 2.0791922 6.6279652e-39
-1.5641677 -0.43062067 2.0537553 6.6283253e-39
-0.25231779 0.63443691 1.9999862 7.3756504e-39
-0.28345573 0.61286938 2.0042808 7.3756504e-39
-0.32330215 0.58197206 2.0056417 7.3756504e-39
-0.3628397 0.55068952 2.0062087 7.3756504e-39
-0.4024049 0.51938623 2.0067778 7.3756504e-39
-0.44164014 0.48928159 2.0085173 7.3756504e-39
-0.48120248 0.45797914 2.0090842 7.3756504e-39
-0.52017391 0.42745382 2.010031 7.3756504e-39
-0.5591445 0.39692891 2.0109773 7.8366285e-39
-0.59897602 0.36604363 2.0123386 1.4105931e-38
-0.63851821 0.33475751 2.0129058 1.4290323e-38
-0.67232692 0.30921662 2.0149064 1.4290323e-38
-1.5910857 -0.41093063 2.0385132 7.3738441e-39
-1.6225672 -0.43602276 2.0368123 7.3756504e-39
-1.6615165 -0.46653056 2.0377588 7.3756504e-39
-1.7004652 -0.49703848 2.0387044 7.3756504e-39
-1.7402787 -0.52790952 2.0400653 7.3756504e-39
-1.779794 -0.55917478 2.0406313 7.3756504e-39
-1.8187404 -0.58967948 2.041579 7.3756504e-39
-1.857686 -0.62018538 2.0425243 7.3756504e-39
-1.8980734 -0.65181947 2.0435057 7.3756504e-39
-1.9378909 -0.68269408 2.0448658 7.3756504e-39
-1.9765296 -0.71358609 2.0450182 7.3756504e-39
-2.015759 -0.74368668 2.0467572 7.3756504e-39
-2.0552785 -0.7749548 2.0473242 1.3183975e-38
-2.083755 -0.80007958 2.0444808 1.4290323e-38
-1.0602276 -1.077122 2.5233688 7.1836697e-39
-1.0835369 -1.0472193 2.5016463 7.8293992e-39
-1.1108465 -1.0121849 2.4761949 7.8293992e-39
-1.1370878 -0.97852075 2.4517395 7.7368435e-39
-1.1632739 -0.94492769 2.4273357 7.7364833e-39
-1.1904083 -0.91011775 2.4020476 7.7361218e-39
-1.2174844 -0.8753829 2.3768139 7.6435646e-39
-1.2435015 -0.84200644 2.3525677 7.4591706e-39
-1.2704611 -0.80742097 2.3274426 7.3666134e-39
-1.2973628 -0.77290964 2.3023715 7.2740563e-39
-1.3232127 -0.73974776 2.2782812 7.1815005e-39
-1.3499992 -0.70538449 2.2533178 6.9967491e-39
-1.3668376 -0.68378305 2.2376251 6.9041933e-39
-1.5453221 -0.48983932 2.0127349 6.351021e-39
-1.5594002 -0.47175777 1.9996506 6.3510224e-39
-0.2004391 0.63426697 1.94757 7.3756504e-39
-0.22893703 0.62048972 1.9589736 7.3756504e-39
-0.26779068 0.59074289 1.9607776 7.3756504e-39
-0.30742681 0.5590384 1.9609153 7.3756504e-39
-0.34681904 0.52851295 1.962285 7.3756504e-39
-0.38618386 0.49800992 1.9636557 7.3756504e-39
-0.42526138 0.46707183 1.9641918 7.3756504e-39
-0.46466053 0.4365418 1.9655629 7.3756504e-39
-0.5042752 0.40485352 1.9656988 7.3756504e-39
-0.5436734 0.3743245 1.9670709 7.3756504e-39
-0.58304203 0.34381789 1.9684408 1.2262019e-38
-0.62210763 0.31288952 1.9689771 1.4290323e-38
-0.64991629 0.29288822 1.9718848 1.4290323e-38
-1.5802599 -0.44245398 1.9922646 7.2787576e-39
-1.6060569 -0.45780444 1.9928914 7.3756504e-39
-1.6459982 -0.48908889 1.9938623 7.3756504e-39
-1.6844591 -0.51921403 1.9947971 7.3756504e-39
-1.7238108 -0.54970777 1.9961661 7.3756504e-39
-1.762849 -0.58061385 1.9967027 7.3756504e-39
-1.8027871 -0.61189651 1.9976727 7.3756504e-39
-1.8427243 -0.64317799 1.9986434 7.3756504e-39
-1.8811818 -0.67330039 1.9995782 7.3756504e-39
-1.9205382 -0.70379686 2.0009482 7.3756504e-39
-1.9601527 -0.73548484 2.0010848 7.3756504e-39
-2.0003884 -0.76634097 2.0028892 7.3756504e-39
-2.0394316 -0.79725182 2.0034246 1.1524454e-38
-2.0770123 -0.82704329 2.0038919 1.4290323e-38
-2.0975122 -0.85164261 1.9936802 1.4290323e-38
-1.0567356 -1.1173415 2.4668741 6.9989169e-39
-1.0797458 -1.0877898 2.4454851 7.6442863e-39
-1.1058441 -1.0542718 2.4212253 7.6442863e-39
-1.131887 -1.0208251 2.3970172 7.6439262e-39
-1.1589143 -0.98611403 2.3718939 7.6439248e-39
-1.1858829 -0.95147848 2.3468249 7.6435632e-39
-1.2127931 -0.91691756 2.3218107 7.5510061e-39
-1.239645 -0.88243186 2.2968507 7.458809e-39
-1.2664385 -0.84802079 2.2719443 7.3662519e-39
-1.2931745 -0.81368399 2.2470922 7.2740563e-39
-1.3198527 -0.77942145 2.2222939 7.1815005e-39
-1.3464732 -0.7452327 2.1975484 6.9967491e-39
-1.3730364 -0.71111774 2.1728566 6.9041933e-39
-1.3995428 -0.67707455 2.1482201 6.8123564e-39
-1.4361523 -0.63005424 2.1141958 6.9967449e-39
-1.4229443 -0.64701831 2.1264708 6.9045507e-39
-1.4523849 -0.60920548 2.0991092 6.9045493e-39
-1.4797322 -0.57408118 2.0736933 6.7205195e-39
-1.5070192 -0.53903461 2.0483329 6.6279652e-39
-1.5322309 -0.50665343 2.0249014 6.4435739e-39
-0.18563259 0.62759769 1.9243087 7.3756504e-39
-0.21581447 0.60395741 1.9250426 7.3756504e-39
-0.2550503 0.57322556 1.9259965 7.3756504e-39
-0.29428494 0.54249436 1.9269497 7.3756504e-39
-0.33352029 0.51176375 1.9279051 7.3756504e-39
-0.3727535 0.48103362 1.9288583 7.3756504e-39
-0.41198575 0.45030397 1.9298111 7.3756504e-39
-0.45121896 0.41957539 1.9307671 7.3756504e-39
-0.49045002 0.38884693 1.9317205 7.3756504e-39
-0.52968025 0.35811937 1.9326738 7.3756504e-39
-0.56891 0.32739216 1.9336275 1.0325911e-38
-0.6081394 0.29666585 1.934582 1.4290323e-38
-0.63077056 0.27893907 1.9351311 1.4290323e-38
-1.5961562 -0.47720754 1.9586033 7.3756504e-39
-1.6338573 -0.50673723 1.9595201 7.3756504e-39
-1.6730657 -0.53744769 1.9604728 7.3756504e-39
-1.7122729 -0.56815696 1.9614267 7.3756504e-39
-1.7514799 -0.59886563 1.9623806 7.3756504e-39
-1.7906857 -0.62957442 1.963333 7.3756504e-39
-1.829891 -0.6602819 1.9642869 7.3756504e-39
-1.8690953 -0.69098926 1.9652399 7.3756504e-39
-1.908299 -0.7216959 1.9661928 7.3756504e-39
-1.9475021 -0.75240183 1.9671463 7.3756504e-39
-1.9867041 -0.78310728 1.9680995 7.3756504e-39
-2.0259056 -0.81381249 1.969052 9.4961499e-39
-2.0651062 -0.84451663 1.9700052 1.4290323e-38
-2.0952601 -0.86813498 1.9707379 1.4290323e-38
-1.2077923 -0.96119189 2.2631798 7.458809e-39
-1.2344687 -0.92689061 2.2384505 7.3662533e-39
-1.2610872 -0.89266419 2.2137756 7.2740563e-39
-1.2876492 -0.85851002 2.1891527 7.0893049e-39
-1.3141534 -0.82443023 2.1645832 6.9967505e-39
-1.341658 -0.78906417 2.1390867 6.9967491e-39
-1.3680472 -0.7551322 2.1146235 6.9971064e-39
-1.3943796 -0.72127354 2.0902138 6.9967463e-39
-1.4217062 -0.68613482 2.0648854 7.0892993e-39
-1.447925 -0.65242004 2.0405846 6.9974638e-39
-1.4740872 -0.61877775 2.0163372 6.9049094e-39
-1.5012369 -0.58386588 1.9911736 6.6283239e-39
-1.5283265 -0.54903126 1.9660662 6.4435739e-39
-1.5553563 -0.51427352 1.9410146 6.3506636e-39
-0.1346966 0.62950182 1.8754406 7.3756504e-39
-0.16366684 0.61563212 1.8872044 7.3756504e-39
-0.20267594 0.58587992 1.8891582 7.3756504e-39
-0.24269259 0.55453676 1.8901315 7.3756504e-39
-0.28212154 0.52403867 1.891573 7.3756504e-39
-0.32117438 0.49306589 1.8920407 7.3756504e-39
-0.36025679 0.46206933 1.8925083 7.3756504e-39
-0.39905632 0.43245018 1.8944182 7.3756504e-39
-0.43813741 0.40145504 1.8948865 7.3756504e-39
-0.4781487 0.37011528 1.8958583 7.3756504e-39
-0.51757288 0.33962137 1.8973 7.3756504e-39
-0.55662096 0.30865163 1.8977666 8.6663892e-39
-0.59413254 0.28014541 1.899776 1.4198127e-38
-1.5860343 -0.49714005 1.9250886 7.28201e-39
-1.6196418 -0.52396083 1.9236225 7.3756504e-39
-1.6580923 -0.55407703 1.9245582 7.3756504e-39
-1.6980798 -0.5853976 1.9255304 7.3756504e-39
-1.7374647 -0.61586082 1.9269711 7.3756504e-39
-1.7765048 -0.64682508 1.9274361 7.3756504e-39
-1.8164902 -0.67814326 1.9284095 7.3756504e-39
-1.8559029 -0.70862794 1.9298514 7.3756504e-39
-1.8949105 -0.73956561 1.9303176 7.3756504e-39
-1.933948 -0.77052677 1.9307843 7.3756504e-39
-1.9733481 -0.80100262 1.9322244 7.3756504e-39
-2.0127161 -0.83145261 1.9336648 7.7444329e-39
-2.0517619 -0.86241949 1.9341331 1.392154e-38
-2.0899863 -0.8931601 1.9340583 1.4290323e-38
-2.1106977 -0.91819918 1.9235083 1.4290323e-38
-1.0519323 -1.1616001 2.4076614 6.9063597e-39
-1.0735457 -1.1338092 2.3876262 7.4595321e-39
-1.1005108 -1.0991368 2.3626294 7.4595321e-39
-1.1274185 -1.0645385 2.3376861 7.3669764e-39
-1.1542673 -1.0300155 2.3127973 7.4591706e-39
-1.181059 -0.99556613 2.2879615 7.5510047e-39
-1.4723821 -0.66095698 1.9510685 6.8127152e-39
-1.4961393 -0.63036871 1.9291148 6.6283239e-39
-1.5230805 -0.59568095 1.9042182 6.4435753e-39
-1.5499631 -0.56106842 1.8793759 6.3510224e-39
-0.10975993 0.61686063 1.8345001 7.3756504e-39
-0.14483953 0.59164029 1.8381813 7.3756504e-39
-0.18436384 0.56068283 1.8391426 7.3756504e-39
-0.22388804 0.52972627 1.8401048 7.3756504e-39
-0.26281393 0.49964404 1.8415613 7.3756504e-39
-0.30194974 0.46817875 1.841495 7.3756504e-39
-0.34183586 0.4377504 1.8434839 7.3756504e-39
-0.38038421 0.40715194 1.8439133 7.3756504e-39
-0.41990387 0.37619841 1.8448746 7.3756504e-39
-0.45942366 0.34524518 1.8458369 7.3756504e-39
-0.49894154 0.31429255 1.8467979 7.3756504e-39
-0.53845918 0.28334051 1.8477595 7.3756504e-39
-0.56908119 0.26169866 1.8514411 1.1524454e-38
-1.5727792 -0.53077221 1.8730423 7.187285e-39
-1.6003499 -0.54837668 1.8736002 7.3756504e-39
-1.6408336 -0.57967925 1.8750942 7.3756504e-39
-1.6799335 -0.61111617 1.8750274 7.3756504e-39
-1.7198018 -0.64153099 1.8770151 7.3756504e-39
-1.7583187 -0.67210507 1.8774433 7.3756504e-39
-1.7978117 -0.70303679 1.8784058 7.3756504e-39
-1.8373038 -0.73396873 1.8793666 7.3756504e-39
-1.8762022 -0.76402998 1.8808217 7.3756504e-39
-1.9152992 -0.79546428 1.8807552 7.3756504e-39
-1.9551613 -0.82587409 1.8827429 7.3756504e-39
-1.9942997 -0.85734081 1.8826776 7.3756504e-39
-2.0341172 -0.88771546 1.884665 1.1801041e-38
-2.0736465 -0.91867685 1.8856261 1.4290323e-38
-2.1060643 -0.94745827 1.8821645 1.4290323e-38
-1.0456825 -1.2103169 2.3454461 6.7216055e-39
-1.0680386 -1.1815348 2.3247831 7.3666134e-39
-1.0948145 -1.1470618 2.300035 7.2747779e-39
-1.121533 -1.112663 2.2753396 7.2744178e-39
-1.1481943 -1.0783379 2.2506971 7.2744178e-39
-1.1759056 -1.042661 2.225085 7.366612e-39
-1.2035558 -1.0070627 2.1995287 7.366612e-39
-1.2300415 -0.97296357 2.1750479 7.2740563e-39
-1.2564709 -0.93893671 2.15062 7.1815005e-39
-1.2828441 -0.90498281 2.1262445 6.9967491e-39
-1.3091609 -0.8711009 2.1019204 6.9045535e-39
-1.3354219 -0.83729124 2.0776479 6.9049122e-39
-1.3627173 -0.80214953 2.0524194 6.9971064e-39
-1.3899533 -0.7670846 2.0272462 6.9971064e-39
-1.4160427 -0.73349559 2.0031323 6.9974638e-39
-1.4431605 -0.69858074 1.9780724 6.9052695e-39
-1.4594053 -0.677665 1.9630604 6.9052695e-39
-0.066709161 0.62181145 1.7973857 7.3756504e-39
-0.090918303 0.60285079 1.797976 7.3756504e-39
-0.12965071 0.57251424 1.7989192 7.3756504e-39
-0.16838157 0.54217798 1.7998605 7.3756504e-39
-0.20872688 0.51057851 1.8008432 7.3756504e-39
-0.24907136 0.47897983 1.8018262 7.3756504e-39
-0.28780019 0.44864553 1.8027682 7.3756504e-39
-0.32652938 0.41831195 1.8037117 7.3756504e-39
-0.36525714 0.38797861 1.8046536 7.3756504e-39
-0.40559828 0.35638237 1.8056366 7.3756504e-39
-0.44593811 0.3247866 1.806618 7.3756504e-39
-0.48466432 0.29445541 1.8075616 7.3756504e-39
-0.5233897 0.26412481 1.8085053 7.3756504e-39
-0.54759276 0.24516851 1.8090949 7.3756504e-39
-1.5880334 -0.56974077 1.8344231 7.3756504e-39
-1.6267372 -0.60005474 1.8353655 7.3756504e-39
-1.6654401 -0.63036859 1.8363068 7.3756504e-39
-1.7041423 -0.66068137 1.8372493 7.3756504e-39
-1.7428437 -0.69099331 1.838192 7.3756504e-39
-1.7831571 -0.72256815 1.8391733 7.3756504e-39
-1.8234696 -0.75414264 1.8401542 7.3756504e-39
-1.8621688 -0.78445315 1.8410964 7.3756504e-39
-1.9008671 -0.81476283 1.8420386 7.3756504e-39
-1.9395649 -0.84507227 1.8429806 7.3756504e-39
-1.9798741 -0.87664425 1.8439612 7.3756504e-39
-2.0201826 -0.90821469 1.8449435 9.7727368e-39
-2.0588782 -0.9385227 1.8458848 1.4290323e-38
-2.0975723 -0.96882892 1.8468277 1.4290323e-38
-2.1217568 -0.98777175 1.847415 1.4290323e-38
-1.2515291 -0.98847389 2.0830095 7.0896636e-39
-1.2776999 -0.9547348 2.058897 6.9049122e-39
-1.3049498 -0.91960406 2.0337896 6.812718e-39
-1.3310087 -0.88600898 2.0097804 6.9049122e-39
-1.3570117 -0.85248613 1.9858221 6.9974652e-39
-1.3840873 -0.81758034 1.9608757 6.9974652e-39
-1.4111035 -0.78275108 1.9359843 6.9974638e-39
-1.4380606 -0.74799776 1.911148 6.9049094e-39
-1.464959 -0.71331835 1.8863692 6.7205195e-39
-1.4917984 -0.67871475 1.8616455 6.5357695e-39
-1.518579 -0.64418685 1.8369758 6.351021e-39
-1.545301 -0.60973465 1.8123596 6.258468e-39
-0.038169026 0.60877037 1.7523177 7.3756504e-39
-0.075846314 0.58216512 1.7568769 7.3756504e-39
-0.11477292 0.55215627 1.7584262 7.3756504e-39
-0.15330076 0.52150011 1.7587624 7.3756504e-39
-0.19285691 0.49051845 1.7597253 7.3756504e-39
-0.23241234 0.45953739 1.7606883 7.3756504e-39
-0.27196777 0.42855704 1.7616522 7.3756504e-39
-0.31152236 0.39757735 1.7626164 7.3756504e-39
-0.35107589 0.36659795 1.7635798 7.3756504e-39
-0.39104044 0.33621609 1.7657058 7.3756504e-39
-0.43015695 0.30465978 1.765506 7.3756504e-39
-0.46970737 0.27368236 1.7664683 7.3756504e-39
-0.50828421 0.24447018 1.7686641 7.3756504e-39
-1.5754149 -0.59157002 1.7963562 7.2816499e-39
-1.6097137 -0.6192013 1.7942312 7.3756504e-39
-1.6492414 -0.65016031 1.7951941 7.3756504e-39
-1.689784 -0.68147266 1.7967353 7.3756504e-39
-1.7299299 -0.71335745 1.7971597 7.3756504e-39
-1.7694554 -0.74431467 1.7981224 7.3756504e-39
-1.808401 -0.77433801 1.7996724 7.3756504e-39
-1.8468457 -0.80492902 1.8000069 7.3756504e-39
-1.8863688 -0.83588457 1.8009694 7.3756504e-39
-1.9258914 -0.86683977 1.8019316 7.3756504e-39
-1.9654129 -0.89779377 1.8028948 7.3756504e-39
-2.0049336 -0.92874742 1.8038573 7.8366285e-39
-2.0444536 -0.95970035 1.8048198 1.4013736e-38
-2.0833807 -0.98970962 1.8063691 1.4290323e-38
-2.1172433 -1.019614 1.8029535 1.4290323e-38
-1.0413082 -1.2594901 2.2766981 6.6294085e-39
-1.0632994 -1.2311392 2.2564361 7.1822208e-39
-1.0898696 -1.1968849 2.231956 7.1822208e-39
-1.1175349 -1.1612189 2.206466 7.1818606e-39
-1.1439905 -1.1271125 2.1820912 7.1818606e-39
-1.1703889 -1.0930796 2.1577687 7.1822194e-39
-1.197876 -1.0576434 2.1324434 7.2740548e-39
-1.2241609 -1.0237569 2.1082253 7.1818592e-39
-1.2378546 -1.006103 2.0956085 7.1818592e-39
0.007186532 0.61345303 1.7125475 7.3756504e-39
-0.019758821 0.59234953 1.7132051 7.3756504e-39
-0.060174346 0.56069505 1.7141893 7.3756504e-39
-0.098906398 0.53036004 1.7151341 7.3756504e-39
-0.13763654 0.50002557 1.7160771 7.3756504e-39
-0.17805052 0.46837282 1.7170622 7.3756504e-39
-0.21846354 0.43672085 1.7180474 7.3756504e-39
-0.25719154 0.40638804 1.7189903 7.3756504e-39
-0.2959193 0.37605596 1.7199342 7.3756504e-39
-0.33632946 0.34440571 1.7209184 7.3756504e-39
-0.37505519 0.31407475 1.7218614 7.3756504e-39
-0.41378105 0.28374457 1.722806 7.3756504e-39
-0.45418882 0.25209606 1.7237899 7.3756504e-39
-0.4861784 0.22704172 1.7245698 7.3756504e-39
-1.5684606 -0.62062025 1.750941 7.5600416e-39
-1.5953839 -0.64170742 1.7515965 7.3756504e-39
-1.6340857 -0.67201948 1.7525389 7.3756504e-39
-1.6727865 -0.70233011 1.7534826 7.3756504e-39
-1.7131696 -0.73395944 1.7544658 7.3756504e-39
-1.751869 -0.76426888 1.7554097 7.3756504e-39
-1.7905675 -0.79457831 1.7563524 7.3756504e-39
-1.8309481 -0.82620597 1.7573352 7.3756504e-39
-1.8713279 -0.85783219 1.7583187 7.3756504e-39
-1.9100244 -0.88813949 1.7592623 7.3756504e-39
-1.94872 -0.91844654 1.7602053 7.3756504e-39
-1.9890971 -0.95007038 1.7611895 7.3756504e-39
-2.0277915 -0.98037672 1.7621319 1.2722997e-38
-2.0664847 -1.0106825 1.7630739 1.4290323e-38
-2.1068597 -1.0423045 1.7640581 1.4290323e-38
-2.1337757 -1.0633852 1.7647145 1.4290323e-38
-1.0941334 -1.2379954 2.1501107 7.1822194e-39
-1.1120514 -1.2148619 2.1336577 7.1822194e-39
-1.1382875 -1.1809893 2.1095665 7.1822194e-39
-1.1644688 -1.1471877 2.0855265 7.0896636e-39
-1.1905947 -1.1134572 2.061537 7.0893035e-39
-1.217849 -1.07827 2.0365114 6.9971078e-39
-1.2450445 -1.0431588 2.0115395 6.9045535e-39
-1.2710011 -1.0096469 1.987705 6.8123578e-39
-1.2980794 -0.9746871 1.9628412 6.8127166e-39
-1.335658 -0.92617059 1.9283355 6.9052709e-39
-1.3227526 -0.94283211 1.9401855 6.8127166e-39
-1.3520589 -0.90499592 1.9132755 6.9052709e-39
-1.3789608 -0.87026346 1.8885736 6.9974652e-39
-1.4046378 -0.83711278 1.8649962 6.9052695e-39
-1.4314243 -0.80252969 1.8404 6.7208783e-39
-1.4581534 -0.76802039 1.8158572 6.6283239e-39
-1.4848237 -0.733585 1.7913718 6.4435739e-39
-1.5125923 -0.69773126 1.7658792 6.2588253e-39
-1.5391452 -0.66344702 1.7415025 6.2588267e-39
0.064748883 0.61108732 1.6516588 7.3756504e-39
0.033963323 0.59729373 1.6653447 7.3756504e-39
-0.0052496195 0.56882453 1.6691124 7.3756504e-39
-0.043735027 0.53815997 1.6693957 7.3756504e-39
-0.083327651 0.50714993 1.6703598 7.3756504e-39
-0.12292039 0.47614062 1.671325 7.3756504e-39
-0.16191256 0.44612491 1.6729317 7.3756504e-39
-0.20098221 0.41447896 1.6725726 7.3756504e-39
-0.2410692 0.38412929 1.6748619 7.3756504e-39
-0.27954876 0.35346735 1.675142 7.3756504e-39
-0.31913769 0.32246101 1.6761072 7.3756504e-39
-0.35872674 0.29145545 1.677074 7.3756504e-39
-0.3977133 0.26144421 1.6786802 7.3756504e-39
-0.43677938 0.22979999 1.6783192 7.3756504e-39
-0.46599209 0.21260166 1.6861539 7.3756504e-39
-1.5577985 -0.64088345 1.7248092 6.8156102e-39
-1.5796945 -0.66424346 1.707556 7.3756504e-39
-1.6175697 -0.69395816 1.7084157 7.3756504e-39
-1.6566495 -0.72561169 1.7080572 7.3756504e-39
-1.6966685 -0.75590849 1.7103446 7.3756504e-39
-1.7351408 -0.78656363 1.7106261 7.3756504e-39
-1.7747011 -0.8175478 1.7115903 7.3756504e-39
-1.8142602 -0.84853077 1.7125552 7.3756504e-39
-1.8531994 -0.87850499 1.71416 7.3756504e-39
-1.8933642 -0.9104861 1.7144823 7.3756504e-39
-1.9329212 -0.94146752 1.7154467 7.3756504e-39
-1.9724773 -0.97244799 1.7164114 7.3756504e-39
-2.0120327 -1.0034279 1.717376 1.0325911e-38
-2.0509791 -1.0334086 1.7189801 1.4290323e-38
-2.0900302 -1.0650398 1.718621 1.4290323e-38
-2.1269896 -1.0946658 1.7186704 1.4290323e-38
-2.1470056 -1.12117 1.7055838 1.4290323e-38
-1.0354134 -1.3138068 2.2040291 6.4446585e-39
-1.0570145 -1.2859185 2.1841941 6.997468e-39
-1.0797776 -1.2565296 2.1632922 7.0900237e-39
0.53920352 0.056091964 2.0549245 7.2747765e-39
0.5164932 0.084493995 2.0325286 7.1825823e-39
0.48993647 0.11735249 2.0057521 7.1822222e-39
0.46367228 0.14993936 1.9794202 7.1822208e-39
0.43741095 0.18252325 1.9530919 7.3666106e-39
0.41085494 0.21538115 1.9263144 7.3669707e-39
0.38400042 0.24876207 1.899493 7.2740548e-39
0.35685742 0.28258866 1.872529 7.1818578e-39
0.33001029 0.31578064 1.8454142 6.6276078e-39
0.30376434 0.34834522 1.8191001 6.7201622e-39
0.27752125 0.38090593 1.7927899 6.9978253e-39
0.25128126 0.41346318 1.7664821 6.9052695e-39
0.22504449 0.44601673 1.7401779 6.9971036e-39
0.19848597 0.4790591 1.7137036 6.8130739e-39
0.1716783 0.51226026 1.6867268 6.6279652e-39
0.14459336 0.54571569 1.6593242 6.5361297e-39
-1.5121515 -0.74758363 1.6838927 6.1666311e-39
0.11774063 0.57915127 1.632602 5.981521e-39
-1.532521 -0.72124243 1.6652615 6.1669898e-39
0.094870806 0.60048997 1.6174266 6.4461117e-39
0.05258286 0.57675767 1.620863 7.3756504e-39
0.01385057 0.54642344 1.6218088 7.3756504e-39
-0.024880052 0.5160895 1.6227531 7.3756504e-39
-0.06537044 0.48437732 1.6237404 7.3756504e-39
-0.10585976 0.45266598 1.6247277 7.3756504e-39
-0.14458835 0.4223339 1.6256723 7.3756504e-39
-0.18331611 0.39200246 1.6266172 7.3756504e-39
-0.22204268 0.36167157 1.6275611 7.3756504e-39
-0.26252949 0.32996261 1.6285491 7.3756504e-39
-0.30301487 0.29825425 1.6295362 7.3756504e-39
-0.3417393 0.26792508 1.6304801 7.3756504e-39
-0.38046396 0.23759687 1.6314261 7.3756504e-39
-0.41918683 0.20726883 1.6323698 7.3756504e-39
-1.5633788 -0.69411945 1.6572428 7.1883683e-39
-1.6016426 -0.71882975 1.6612077 7.3756504e-39
-1.6403422 -0.74913883 1.6621525 7.3756504e-39
-1.6790409 -0.77944815 1.6630952 7.3756504e-39
-1.7177391 -0.80975628 1.6640394 7.3756504e-39
-1.7581954 -0.84144187 1.6650259 7.3756504e-39
-1.7986509 -0.87312698 1.666012 7.3756504e-39
-1.8373468 -0.90343297 1.6669564 7.3756504e-39
-1.8760418 -0.93373942 1.6678994 7.3756504e-39
-1.9147363 -0.96404433 1.6688437 7.3756504e-39
-1.9534297 -0.99434936 1.6697869 7.3756504e-39
-1.9938813 -1.026031 1.6707737 9.8649324e-39
-2.034332 -1.0577128 1.6717589 1.4290323e-38
-2.0730231 -1.0880147 1.6727037 1.4290323e-38
-2.1117139 -1.1183175 1.6736472 1.4290323e-38
-2.1433694 -1.1431106 1.6744182 1.4290323e-38
-1.02907 -1.3722498 2.1258411 6.0762375e-39
-1.0514972 -1.3432497 2.1053236 6.8130753e-39
-1.0776117 -1.3094815 2.0814323 6.9056311e-39
0.54121888 0.035495579 2.0267448 7.2747765e-39
-1.1049116 -1.2741805 2.0564566 6.9981882e-39
0.51909554 0.061693311 2.0024772 7.2747751e-39
-1.1321517 -1.2389569 2.0315351 6.9981882e-39
0.49245036 0.094755054 1.9757643 7.1818606e-39
-1.1593325 -1.2038102 2.0066683 6.9052723e-39
0.46592438 0.12770671 1.9492363 7.1822208e-39
-1.1852229 -1.1703318 1.9829826 6.9045535e-39
0.4392792 0.1608429 1.9226495 7.3666106e-39
-1.2110583 -1.1369243 1.9593465 6.7205223e-39
0.41264689 0.193838 1.8958695 7.4591664e-39
-1.2380668 -1.1020002 1.9346371 6.6279666e-39
0.38625538 0.2266106 1.8694544 7.2744136e-39
-1.2650167 -1.067152 1.909982 6.6276078e-39
0.35986865 0.25937825 1.843045 7.1818578e-39
-1.2919078 -1.0323795 1.88538 6.6279666e-39
0.33337522 0.29213303 1.8162913 6.7198035e-39
-1.3187406 -0.99768257 1.8608315 6.7205209e-39
0.30675137 0.32516837 1.7896008 6.7201622e-39
-1.3455153 -0.96306074 1.8363364 6.8130753e-39
0.28013015 0.35819936 1.762913 6.9978253e-39
-1.3722318 -0.92851412 1.8118944 6.813434e-39
0.25351226 0.39122635 1.7362278 6.9052695e-39
-1.3988906 -0.89404213 1.7875051 6.8130739e-39
0.22689736 0.42424971 1.7095459 6.9978239e-39
-1.4254918 -0.85964477 1.7631686 6.628684e-39
0.20028532 0.45727003 1.6828687 6.9052681e-39
-1.4520354 -0.82532179 1.7388844 6.443934e-39
0.17367637 0.49028587 1.6561933 6.5357695e-39
-1.4785218 -0.79107237 1.7146535 6.3513797e-39
0.1472882 0.52323651 1.6300895 6.443934e-39
-1.4989513 -0.76465392 1.6959665 6.2588253e-39
0.12095463 0.55570078 1.6033418 5.9815224e-39
0.10195625 0.5782094 1.5863106 6.0755229e-39
0.063281059 0.55957401 1.5885553 7.3756504e-39
0.023955226 0.52877367 1.5895135 7.3756504e-39
-0.015371919 0.4979738 1.5904744 7.3756504e-39
-0.054697037 0.46717435 1.5914335 7.3756504e-39
-0.094021201 0.43637568 1.5923927 7.3756504e-39
-0.13334548 0.40557784 1.5933528 7.3756504e-39
-0.17266762 0.37478024 1.594311 7.3756504e-39
-0.21198976 0.34398335 1.5952702 7.3756504e-39
-0.25131178 0.31318712 1.5962303 7.3756504e-39
-0.29063225 0.28239131 1.5971889 7.3756504e-39
-0.32995141 0.25159621 1.5981474 7.3756504e-39
-0.36927164 0.22080219 1.5991085 7.3756504e-39
-0.40322816 0.19420719 1.5999362 7.3756504e-39
-1.5609899 -0.71254408 1.6281803 7.3756504e-39
-1.5877819 -0.73352754 1.628834 7.3756504e-39
-1.6270764 -0.76430273 1.6297925 7.3756504e-39
-1.6663702 -0.79507756 1.6307511 7.3756504e-39
-1.7056632 -0.82585132 1.6317098 7.3756504e-39
-1.7449553 -0.85662448 1.6326687 7.3756504e-39
-1.7842468 -0.887398 1.6336262 7.3756504e-39
-1.8235375 -0.91817021 1.6345847 7.3756504e-39
-1.8628273 -0.94894171 1.6355431 7.3756504e-39
-1.9021165 -0.97971284 1.6365018 7.6522373e-39
-1.9414051 -1.0104834 1.63746 1.1708845e-38
-1.9806926 -1.0412532 1.6384184 1.4290323e-38
-2.0199795 -1.072022 1.6393774 1.4290323e-38
-2.0592656 -1.102791 1.6403353 1.4290323e-38
-2.0985508 -1.1335582 1.6412945 1.4290323e-38
-2.1396208 -1.1657243 1.6422963 1.4290323e-38
0.54418337 0.010555863 1.9942329 7.3666106e-39
0.54571617 -0.0058013797 1.9716438 7.274415e-39
0.52178538 0.036828339 1.9692426 7.2747751e-39
0.52338922 0.021646857 1.948836 7.1822194e-39
0.49520528 0.069862366 1.9426876 7.0903839e-39
0.49699128 0.054505765 1.9225478 7.0900237e-39
0.46863186 0.10288936 1.916139 7.0900251e-39
0.47060263 0.08735466 1.8962698 6.9974694e-39
0.44230235 0.1357246 1.8900218 7.1818606e-39
0.44360793 0.1207478 1.8690381 6.9971092e-39
0.41575634 0.16849923 1.8631363 7.1822194e-39
0.41692126 0.15372145 1.8420529 6.9045535e-39
0.38870728 0.20206332 1.8360217 7.2740534e-39
0.39085424 0.18634892 1.8163946 7.1818578e-39
0.36190808 0.23520899 1.8089786 7.1818578e-39
0.36417401 0.21931505 1.7894146 7.1818578e-39
0.33609164 0.26746386 1.7834678 6.6279666e-39
0.3368746 0.25318944 1.7620506 6.6276078e-39
0.31003642 0.29968059 1.7571595 6.6276078e-39
0.31081939 0.28552055 1.7359333 6.6279666e-39
0.2829994 0.33322889 1.730057 7.0900209e-39
0.28476703 0.31784809 1.7098188 7.0900209e-39
0.25596571 0.36677372 1.7029583 6.9056283e-39
0.25747693 0.35171098 1.6824644 6.9056283e-39
0.22893536 0.40031403 1.6758618 6.9978239e-39
0.23143077 0.38403064 1.6563556 6.9974638e-39
0.20286405 0.43277818 1.6499164 6.8130739e-39
0.20538771 0.41634738 1.6302505 6.8127138e-39
0.17711961 0.46450061 1.6237419 6.5354094e-39
0.17810655 0.45019865 1.6029062 6.4435739e-39
0.15031791 0.49786377 1.5970562 6.5357695e-39
0.15141487 0.48345912 1.5763869 6.5361269e-39
-1.4992018 -0.81750369 1.6068423 5.9826014e-39
0.12329924 0.53138912 1.5699732 5.9811636e-39
0.12544739 0.51539874 1.5498888 5.9815224e-39
-1.5253743 -0.78360176 1.5829971 6.0744369e-39
0.10544217 0.55395377 1.5531285 5.9822454e-39
0.092992187 0.53638852 1.5363214 6.7252265e-39
0.043409228 0.50405014 1.5389426 7.3756504e-39
0.0037885904 0.4736672 1.5407212 7.3756504e-39
-0.035259366 0.44243848 1.5408633 7.3756504e-39
-0.075513959 0.4109112 1.5418448 7.3756504e-39
-0.11393917 0.38081753 1.5427833 7.3756504e-39
-0.15236294 0.35072458 1.5437207 7.3756504e-39
-0.19261563 0.31919932 1.5447035 7.3756504e-39
-0.23223031 0.28882122 1.5464821 7.3756504e-39
-0.27127492 0.25759488 1.5466235 7.3756504e-39
-0.31152499 0.2260713 1.5476058 7.3756504e-39
-0.35117996 0.19566154 1.5493848 7.3756504e-39
-0.37971294 0.17606831 1.5535336 7.3756504e-39
-1.5535343 -0.73305559 1.5949636 7.3756504e-39
-1.567477 -0.75980604 1.5777318 7.1898144e-39
-1.6099964 -0.79087019 1.5792985 7.3756504e-39
-1.6490368 -0.82209313 1.5794399 7.3756504e-39
-1.6879696 -0.85128987 1.5820134 7.3756504e-39
-1.7270083 -0.88251185 1.5821545 7.3756504e-39
-1.7672296 -0.91401243 1.5831366 7.3756504e-39
-1.8068334 -0.94438243 1.5849142 8.9429761e-39
-1.8458272 -0.97556901 1.5850546 1.1524454e-38
-1.8848643 -1.0067894 1.5851958 1.392154e-38
-1.92379 -1.0359809 1.5877688 1.4290323e-38
-1.9628254 -1.0672004 1.5879099 1.4290323e-38
-2.003042 -1.0986971 1.5888917 1.4290323e-38
-2.04264 -1.1290624 1.5906696 1.4290323e-38
-2.0816305 -1.1602464 1.5908098 1.4290323e-38
-2.1218443 -1.1917411 1.5917916 1.2815193e-38
-2.1550891 -1.2223084 1.5869231 1.1063476e-38
-1.0235237 -1.4336259 2.0402982 6.2599071e-39
-1.0442499 -1.4067804 2.0214114 6.6286854e-39
-1.0714027 -1.3716109 1.9966691 6.8130767e-39
0.54813755 -0.028319359 1.9415056 7.0900223e-39
-1.098497 -1.3365166 1.9719796 6.8137956e-39
0.52593291 -0.0010835528 1.91872 7.0900237e-39
-1.124246 -1.3031653 1.9485159 6.9056325e-39
0.49932635 0.03218925 1.8924801 7.0903825e-39
-1.1512251 -1.2682207 1.9239321 6.8130767e-39
0.47276437 0.064990342 1.8655877 7.0900237e-39
-1.1781462 -1.2333509 1.8994002 6.7208811e-39
0.44618762 0.098066092 1.8391137 7.0893035e-39
-1.2050084 -1.1985579 1.8749223 6.6283267e-39
0.41961539 0.13103807 1.8124745 6.9045535e-39
-1.2318134 -1.1638386 1.8504963 6.5361311e-39
0.3929075 0.16421354 1.7857623 7.1818578e-39
-1.2585598 -1.1291955 1.8261247 6.5357723e-39
0.36650479 0.1967808 1.7589712 7.0893021e-39
-1.2852491 -1.0946259 1.8018041 6.5361311e-39
0.33991873 0.23009217 1.7328577 6.6279666e-39
-1.3118801 -1.0601321 1.7775369 6.5361311e-39
0.31353223 0.26238239 1.7056553 6.6279666e-39
-1.3384548 -1.0257115 1.7533209 6.6283253e-39
0.28709471 0.29564214 1.6799121 6.9978253e-39
-1.3649713 -0.99136579 1.7291579 6.6286854e-39
0.25995219 0.32932252 1.6527061 6.9052695e-39
-1.3926901 -0.95546317 1.7039001 6.5368485e-39
0.2336328 0.36152971 1.6255715 6.8134326e-39
-1.419091 -0.92126739 1.679842 6.4442942e-39
0.20714653 0.39484942 1.5997787 6.7208783e-39
-1.4454346 -0.88714576 1.6558371 6.3517398e-39
0.18050432 0.42768812 1.5727057 6.4435739e-39
-1.4729726 -0.85147727 1.630743 6.16735e-39
0.15410399 0.46045125 1.5462511 6.4435739e-39
0.1274184 0.49365723 1.5196593 5.981521e-39
0.10748184 0.5130775 1.4987416 6.2602729e-39
0.063717842 0.47828233 1.486202 7.3756504e-39
0.024364352 0.44746196 1.4871633 7.3756504e-39
-0.014987707 0.41664195 1.4881234 7.3756504e-39
-0.054340124 0.38582277 1.4890854 7.3756504e-39
-0.093690753 0.35500407 1.490046 7.3756504e-39
-0.13304174 0.32418609 1.491008 7.3756504e-39
-0.17239106 0.2933687 1.4919684 7.3756504e-39
-0.21173942 0.26255172 1.492929 7.3756504e-39
-0.25108731 0.23173541 1.4938898 7.3756504e-39
-0.29043496 0.20091993 1.4948516 7.3756504e-39
-0.3297807 0.17010468 1.4958117 7.3756504e-39
-1.5584998 -0.79219449 1.5258188 7.3756504e-39
-1.5903317 -0.81712413 1.5265968 7.3756504e-39
-1.6296526 -0.84791923 1.5275567 7.3756504e-39
-1.6689727 -0.87871444 1.5285161 7.3756504e-39
-1.7082922 -0.90950751 1.5294774 8.4819979e-39
-1.747611 -0.94030106 1.5304372 1.2907388e-38
-1.7869288 -0.97109389 1.5313971 1.4290323e-38
-1.826246 -1.0018862 1.5323572 1.4290323e-38
-1.8655622 -1.0326775 1.5333178 1.4290323e-38
-1.9048777 -1.0634679 1.5342784 1.4290323e-38
-1.9441925 -1.0942589 1.5352373 1.4290323e-38
-1.9835068 -1.1250485 1.5361979 1.244641e-38
-2.0228198 -1.1558374 1.537158 1.0602497e-38
-2.0621326 -1.1866262 1.5381179 7.3756504e-39
-2.1014442 -1.2174146 1.5390773 7.3756504e-39
-2.1407552 -1.2482013 1.5400379 7.3756504e-39
-2.1688337 -1.270191 1.5407248 7.3756504e-39
-1.0144453 -1.4453847 2.0485706 5.4319555e-39
0.55109894 -0.058526635 1.9001939 7.0896622e-39
0.52913487 -0.031249523 1.8782139 6.9978281e-39
0.50269759 0.001462996 1.8515582 7.1825781e-39
0.47592604 0.034818172 1.8249493 7.2747751e-39
0.44947708 0.067660868 1.7984762 7.1818592e-39
0.42304003 0.10048443 1.7720096 6.9045535e-39
0.39647448 0.13318652 1.7449431 7.0896622e-39
0.36968052 0.16690826 1.7188745 6.8123564e-39
0.34342706 0.19788659 1.6898913 6.5354122e-39
0.31677616 0.23067033 1.6626999 6.6279652e-39
0.28984392 0.26409209 1.6357083 6.9978253e-39
0.26419759 0.295919 1.6100056 6.9052695e-39
0.23727167 0.32933301 1.5830202 6.8134326e-39
0.21034896 0.36274278 1.5560374 6.6286826e-39
0.18409383 0.39566028 1.5302856 6.3513783e-39
0.15752757 0.42819083 1.502933 6.4439326e-39
0.13088429 0.46135247 1.4763982 5.981521e-39
0.11208618 0.48328507 1.4580107 6.2599085e-39
0.077206135 0.4598521 1.4495237 7.3756504e-39
0.037209034 0.428527 1.4504993 7.3756504e-39
-0.0027884245 0.39720267 1.4514768 7.3756504e-39
-0.040879965 0.36737037 1.4524069 7.3756504e-39
-0.080876112 0.33604741 1.4533851 7.3756504e-39
-0.12087023 0.30472475 1.4543614 7.3756504e-39
-0.15895998 0.27489436 1.4552922 7.3756504e-39
-0.19895339 0.24357307 1.4562693 7.3756504e-39
-0.23894572 0.21225226 1.4572463 7.3756504e-39
-0.27703321 0.18242377 1.4581773 7.3756504e-39
-0.31131113 0.15557843 1.4590144 7.3756504e-39
-1.5487343 -0.81352699 1.4892485 7.1901745e-39
-1.5753782 -0.8343935 1.4898994 7.3756504e-39
-1.6153431 -0.86569297 1.4908752 7.6522373e-39
-1.6553073 -0.89699125 1.4918523 1.0879084e-38
-1.6933677 -0.92679906 1.4927816 1.4013736e-38
-1.7333304 -0.9580965 1.4937575 1.4290323e-38
-1.7732921 -0.98939312 1.4947343 1.4290323e-38
-1.8113503 -1.0191991 1.4956639 1.4290323e-38
-1.8513106 -1.0504947 1.4966402 1.3552758e-38
-1.8912702 -1.0817896 1.4976163 1.1247867e-38
-1.9293261 -1.1115941 1.4985452 7.7444329e-39
-1.9692841 -1.1428871 1.4995227 7.3756504e-39
-2.0092411 -1.1741804 1.5004985 7.3756504e-39
-2.0491977 -1.2054732 1.5014739 7.3756504e-39
-2.0891533 -1.2367649 1.5024505 7.3756504e-39
-2.1272054 -1.2665662 1.5033798 7.3756504e-39
-2.165257 -1.2963672 1.5043089 7.3756504e-39
0.55399215 -0.086320162 1.8626995 6.9974652e-39
0.55604804 -0.1034072 1.8404999 6.9978267e-39
0.53199136 -0.058740854 1.8411121 6.8130767e-39
0.53431165 -0.076559544 1.8185048 6.7205223e-39
0.50557125 -0.026136279 1.8143311 7.182218e-39
0.50797999 -0.043880761 1.7921185 7.0900223e-39
-1.1504695 -1.3275274 1.8271089 4.881667e-39
-1.1397792 -1.3413991 1.8368084 4.881667e-39
0.47912371 0.0067312717 1.7879035 7.1825795e-39
0.48165143 -0.011205375 1.7657356 7.0903839e-39
-1.1704881 -1.3015513 1.8089459 4.7894714e-39
0.45248497 0.03992635 1.7614353 7.0896622e-39
0.45465434 0.022219539 1.7385507 6.9974666e-39
-1.1971319 -1.2669785 1.7847722 4.7891127e-39
0.4258703 0.072957039 1.7347658 6.8127166e-39
0.42768538 0.055768549 1.7116578 6.8123578e-39
-1.2237182 -1.23248 1.7606494 4.6969184e-39
0.39964235 0.10536897 1.7082524 6.9052709e-39
0.40072405 0.0893085 1.6847727 6.8127166e-39
-1.2502477 -1.1980555 1.7365787 5.2486447e-39
0.37322915 0.13792133 1.6814058 6.5357723e-39
0.37373507 0.12272352 1.6575959 6.4435767e-39
-1.2780423 -1.1619892 1.7113605 5.6167027e-39
0.34637153 0.17039752 1.6530635 6.5350521e-39
0.34742177 0.15537965 1.6312282 6.4428578e-39
-1.3057754 -1.1260028 1.686198 5.616344e-39
0.31960952 0.20381194 1.6265817 6.6276064e-39
0.31965041 0.1908406 1.6050601 6.5357709e-39
-1.3321297 -1.0918056 1.662286 5.6167027e-39
0.29283273 0.2379365 1.6012409 6.9059884e-39
0.29458344 0.22261298 1.5810478 6.9056297e-39
-1.3584278 -1.0576813 1.6384254 5.6167027e-39
0.26678979 0.27025604 1.5751429 6.813434e-39
0.26830864 0.25522172 1.5547183 6.813434e-39
-1.3846698 -1.0236297 1.6146154 5.5248672e-39
0.24074996 0.30257213 1.5490472 6.8137928e-39
0.2420367 0.28782612 1.5283911 6.8134326e-39
-1.4108562 -0.98965037 1.5908566 5.432673e-39
0.21364391 0.3363325 1.5220854 6.628684e-39
0.21576738 0.32042736 1.502068 6.5364884e-39
-1.4382913 -0.95405054 1.565964 5.3404774e-39
0.18636549 0.36993605 1.4943335 6.3513783e-39
0.18902981 0.35371691 1.4754531 6.3513783e-39
-1.4656663 -0.91852891 1.5411263 5.2479244e-39
0.16004455 0.40272796 1.4681706 6.3517384e-39
0.16192687 0.38724571 1.4481168 6.3517384e-39
-1.4916806 -0.88477278 1.5175228 5.0635345e-39
0.13401604 0.43502891 1.4420881 5.8896855e-39
0.13482153 0.42077708 1.4207771 5.8893281e-39
-1.5189359 -0.84940624 1.492794 5.4312339e-39
0.11572516 0.45764327 1.4239357 6.2599071e-39
0.10250592 0.44088173 1.4077461 6.7252223e-39
0.050477862 0.40896201 1.4126196 7.3756504e-39
0.011751175 0.37863296 1.4135661 7.3756504e-39
-0.026974797 0.34830427 1.4145124 7.3756504e-39
-0.065700173 0.31797624 1.4154589 7.3756504e-39
-0.10636115 0.28613251 1.4164531 7.3756504e-39
-0.1470207 0.25428939 1.4174464 7.3756504e-39
-0.18574393 0.22396302 1.4183929 7.3756504e-39
-0.22446597 0.19363731 1.4193389 7.3756504e-39
-0.26318729 0.1633122 1.4202847 7.3756504e-39
-0.2922281 0.14056903 1.4209952 7.3756504e-39
-1.5384349 -0.82905126 1.4701409 6.6319435e-39
-1.563796 -0.85527015 1.4520717 8.9429761e-39
-1.6024916 -0.88557458 1.453018 1.3829344e-38
-1.6411867 -0.91587865 1.453964 1.4290323e-38
-1.679881 -0.94618237 1.4549096 1.4290323e-38
-1.7185745 -0.97648561 1.4558551 1.4198127e-38
-1.7592018 -1.0083034 1.4568479 1.1616649e-38
-1.7998283 -1.0401204 1.4578407 8.6663892e-39
-1.8385193 -1.0704218 1.4587862 7.467846e-39
-1.8772098 -1.1007221 1.4597323 7.3756504e-39
-1.9158994 -1.1310222 1.4606776 7.3756504e-39
-1.9545883 -1.1613222 1.4616227 7.3756504e-39
-1.9952109 -1.193136 1.4626157 7.3756504e-39
-2.0358329 -1.2249489 1.4636087 7.3756504e-39
-2.0745192 -1.2552469 1.4645541 7.3756504e-39
-2.113205 -1.2855439 1.4654994 7.3756504e-39
-2.1518903 -1.3158407 1.466445 7.3756504e-39
-2.1809037 -1.3385625 1.467154 7.3756504e-39
0.55790222 -0.12270534 1.8139915 6.9052709e-39
0.53608906 -0.095569849 1.7922418 6.6283267e-39
0.50945222 -0.06242919 1.7656879 6.9978267e-39
0.48267806 -0.029346764 1.738616 6.9981882e-39
0.45620668 0.0036138296 1.7122712 6.9052723e-39
0.42991817 0.036284566 1.6860025 6.7201622e-39
0.40348732 0.06893599 1.659265 6.7205209e-39
0.37687314 0.10196686 1.6325982 6.443218e-39
0.35026181 0.13499326 1.6059332 6.3510224e-39
0.32365382 0.16801608 1.5792718 6.5357709e-39
0.29704869 0.20103508 1.552613 6.813434e-39
0.27044666 0.23405051 1.5259578 6.7212384e-39
0.24384785 0.26706207 1.4993055 6.7215971e-39
0.21725237 0.30006975 1.4726562 6.5361297e-39
0.19065964 0.33307362 1.4460101 6.3513783e-39
0.16406953 0.36607361 1.4193673 6.3517384e-39
0.13763106 0.39903688 1.3931296 5.6131028e-39
0.11575925 0.42071033 1.3751245 6.3531902e-39
0.066167712 0.39027667 1.3734059 7.3756504e-39
0.026784539 0.35943425 1.3743694 7.3756504e-39
-0.012596965 0.32859218 1.3753321 7.3756504e-39
-0.051977277 0.29775077 1.3762934 7.3756504e-39
-0.091358542 0.26691031 1.3772578 7.3756504e-39
-0.1307379 0.23607004 1.3782203 7.3756504e-39
-0.17011607 0.20523059 1.3791826 7.3756504e-39
-0.20949495 0.17439187 1.3801465 7.3756504e-39
-0.24887216 0.14355361 1.3811092 7.3756504e-39
-0.27249837 0.12505096 1.3816874 7.3756504e-39
-1.5518221 -0.8768518 1.4129665 1.4290323e-38
-1.5872378 -0.90458751 1.4138327 1.4290323e-38
-1.6265881 -0.93540454 1.4147947 1.1524454e-38
-1.6659375 -0.96622145 1.4157562 9.4039542e-39
-1.7052863 -0.99703705 1.4167187 7.3756504e-39
-1.7446342 -1.027853 1.4176798 7.3756504e-39
-1.7839811 -1.0586672 1.4186425 7.3756504e-39
-1.8233274 -1.0894817 1.4196041 7.3756504e-39
-1.862673 -1.1202953 1.4205658 7.3756504e-39
-1.9020178 -1.151108 1.4215281 7.3756504e-39
-1.9413618 -1.1819202 1.4224904 7.3756504e-39
-1.980705 -1.2127323 1.4234514 7.3756504e-39
-2.0200477 -1.2435431 1.4244137 7.3756504e-39
-2.0593894 -1.2743535 1.4253762 7.3756504e-39
-2.0987301 -1.3051634 1.4263375 7.3756504e-39
-2.1380703 -1.335973 1.427299 7.3756504e-39
-2.1774101 -1.3667817 1.428261 7.3756504e-39
0.5612222 -0.15295005 1.7737205 6.8130753e-39
0.53932726 -0.12546015 1.7523077 6.7205209e-39
0.51265132 -0.092557073 1.7252388 6.9056311e-39
0.48613083 -0.059539378 1.6988382 6.9985484e-39
-1.7720001 -1.8349068 1.7265975 2.8580645e-39
-1.7958634 -1.8481581 1.7345991 3.226847e-39
-1.8285954 -1.8673978 1.7463582 3.1346514e-39
0.45962512 -0.026590943 1.6723671 6.812718e-39
-1.7937391 -1.8075771 1.704813 2.8580645e-39
-1.8161349 -1.8202755 1.7125151 2.8580645e-39
-1.850572 -1.8405411 1.7249043 2.8580645e-39
0.43293178 0.0065911412 1.6457083 6.8130753e-39
-1.8205578 -1.7725902 1.6769993 2.8580645e-39
-1.8428584 -1.7885387 1.6871073 2.8580645e-39
-1.8771884 -1.8067672 1.6980014 2.8580645e-39
0.4062742 0.039371312 1.6184883 6.6279666e-39
-1.8433774 -1.741677 1.6524899 2.8580645e-39
-1.8689568 -1.7548053 1.6602726 2.8580645e-39
-1.9041455 -1.7728655 1.670979 2.8580645e-39
0.37977684 0.072255194 1.5919344 6.5357709e-39
-1.8705399 -1.70753 1.6252716 2.8580645e-39
-1.8960299 -1.7207654 1.6331391 2.8580645e-39
-1.9310954 -1.7389722 1.6439626 2.8580645e-39
0.35365307 0.10499066 1.566283 6.258468e-39
-1.8976952 -1.6733916 1.5980589 2.8580645e-39
-1.9216833 -1.6876924 1.6068254 2.8580645e-39
-1.9566922 -1.7067809 1.618304 2.8580645e-39
0.32747781 0.13582015 1.537292 6.4435753e-39
-1.9237498 -1.6400847 1.5715423 2.8580645e-39
-1.9482286 -1.6559136 1.5813987 2.8580645e-39
-1.9822825 -1.6745975 1.5926507 2.8580645e-39
0.30073893 0.16873449 1.5100479 6.7212384e-39
-1.9473228 -1.6075051 1.545747 2.8580645e-39
-1.9745045 -1.6220963 1.5544891 2.8580645e-39
-2.0092139 -1.640728 1.565654 2.8580645e-39
0.27364814 0.20235866 1.4829047 6.7212384e-39
-1.9744661 -1.5733826 1.5185475 2.8580645e-39
-2.0015512 -1.5880883 1.5273821 2.8580645e-39
-2.0361381 -1.6068668 1.5386631 2.8580645e-39
0.24684846 0.23589396 1.4565077 6.6294015e-39
-2.0002458 -1.5409739 1.4927144 2.8580645e-39
-2.028687 -1.5545492 1.5006132 2.8580645e-39
-2.0630565 -1.573014 1.5116794 2.8580645e-39
0.22065365 0.26820087 1.4299216 6.4442942e-39
-2.0260191 -1.5085728 1.4668872 2.8580645e-39
-2.0536642 -1.5219448 1.4746957 2.8580645e-39
-2.0886226 -1.5408614 1.4860508 2.8580645e-39
0.19445753 0.30046469 1.4032607 6.2591841e-39
-2.0512195 -1.4733956 1.439054 2.8580645e-39
-2.0799513 -1.4895129 1.4488082 2.8580645e-39
-2.1141829 -1.5087163 1.4604287 2.8580645e-39
0.1678766 0.33348042 1.3766716 6.2595442e-39
-2.0783434 -1.4392974 1.4118745 2.8580645e-39
-2.1085768 -1.4560072 1.421952 2.8580645e-39
-2.1418915 -1.4761655 1.4343472 2.8580645e-39
0.14109719 0.36702979 1.3503635 5.5209072e-39
-2.104105 -1.406912 1.3860595 2.8580645e-39
-2.1359518 -1.4228852 1.3954749 2.8580645e-39
-2.1698551 -1.4421451 1.4071624 2.8580645e-39
0.1207577 0.39010739 1.3326795 6.2606316e-39
0.080394626 0.36937892 1.3328907 7.3756504e-39
0.042335153 0.3395744 1.3338239 7.3756504e-39
0.0022758245 0.30820143 1.3348024 7.3756504e-39
-0.037783742 0.27682924 1.3357823 7.3756504e-39
-0.077842593 0.24545753 1.3367622 7.3756504e-39
-0.11589754 0.21565509 1.3376935 7.3756504e-39
-0.15395129 0.18585306 1.3386233 7.3756504e-39
-0.19400728 0.15448308 1.3396022 7.3756504e-39
-0.23206067 0.12468278 1.3405344 7.3756504e-39
-1.5414369 -0.9007448 1.3725622 8.6663892e-39
-1.5714586 -0.92425585 1.3732967 7.3756504e-39
-1.6114866 -0.9556036 1.3742757 7.3756504e-39
-1.6515138 -0.98695099 1.3752542 7.3756504e-39
-1.6915402 -1.018297 1.3762338 7.3756504e-39
-1.7295644 -1.0480758 1.3771632 7.3756504e-39
-1.7675883 -1.0778537 1.3780932 7.3756504e-39
-1.8076123 -1.1091982 1.3790724 7.3756504e-39
-1.8476355 -1.140542 1.3800514 7.3756504e-39
-1.8876581 -1.1718855 1.3810306 7.3756504e-39
-1.9276799 -1.2032286 1.3820086 7.3756504e-39
-1.9656999 -1.2330031 1.3829393 7.3756504e-39
-2.0037189 -1.2627782 1.3838682 7.3756504e-39
-2.0437384 -1.2941186 1.3848476 7.3756504e-39
-2.0837569 -1.3254586 1.3858268 7.3756504e-39
-2.1225154 -1.3740044 1.375479 4.5175859e-39
-2.1550765 -1.3978269 1.3798206 3.5956296e-39
-2.1887355 -1.4183171 1.3894014 3.3190427e-39
0.56408703 -0.18140531 1.7350338 6.7208797e-39
0.56690323 -0.19955695 1.7133949 6.9978295e-39
0.54224789 -0.15424621 1.7132423 6.7212398e-39
0.54466903 -0.17195964 1.6911213 6.7208811e-39
0.51571 -0.12135881 1.6865709 6.8134354e-39
0.51826894 -0.13919091 1.6646745 6.7215999e-39
0.48936951 -0.088720918 1.66009 6.9985484e-39
0.49187195 -0.10642618 1.6382303 6.9981882e-39
-1.6348813 -1.7618711 1.6829152 2.8580645e-39
-1.6615735 -1.7751606 1.6907332 2.8580645e-39
-1.7041907 -1.7996168 1.7056062 3.4112383e-39
-1.7479935 -1.822969 1.7195761 2.8580645e-39
0.46278131 -0.055338919 1.634088 6.8134368e-39
0.46408856 -0.07194078 1.6103981 6.8130767e-39
-1.6573067 -1.733187 1.6600795 2.8580645e-39
-1.6821729 -1.7484365 1.6694806 2.8580645e-39
-1.7267416 -1.7729118 1.684222 2.8580645e-39
-1.7697988 -1.7955601 1.6977277 2.8580645e-39
0.4361068 -0.022714257 1.6065571 6.7205209e-39
0.43769753 -0.039183557 1.5839603 6.7208797e-39
-1.6812267 -1.7000418 1.6338413 2.8580645e-39
-1.7092354 -1.7160914 1.643599 2.8580645e-39
-1.7529806 -1.7389238 1.6571891 2.8580645e-39
-1.7951939 -1.7619169 1.6710122 2.8580645e-39
0.40956175 0.01027894 1.5800412 6.5361297e-39
0.4113096 -0.0064302087 1.5575254 6.7212398e-39
-1.7074966 -1.6670463 1.6075375 2.8580645e-39
-1.7359827 -1.6816833 1.6162169 2.8580645e-39
-1.779009 -1.7062163 1.6311166 2.8580645e-39
-1.8207562 -1.7289233 1.644763 2.8580645e-39
0.38319743 0.043382049 1.5542605 6.6286854e-39
0.38492453 0.026319683 1.5310941 6.6286854e-39
-1.7337606 -1.6340573 1.5812411 2.8580645e-39
-1.7621523 -1.6488075 1.5900111 2.8580645e-39
-1.8050313 -1.673517 1.6050506 2.8580645e-39
-1.8468325 -1.6952209 1.6179533 2.8580645e-39
0.35610116 0.076745868 1.5266683 6.3510224e-39
0.3585428 0.059065461 1.5046651 6.4432166e-39
-1.7600181 -1.6010773 1.55495 2.8580645e-39
-1.7883153 -1.6159403 1.5638103 2.8580645e-39
-1.8324161 -1.6391039 1.5776193 2.8580645e-39
-1.8740717 -1.6609833 1.5906622 2.8580645e-39
0.33023989 0.10703391 1.4977365 6.4435753e-39
0.33216393 0.091807604 1.4782395 6.3513811e-39
-1.7847347 -1.5667248 1.5277617 2.8580645e-39
-1.8144722 -1.5830805 1.537616 2.8580645e-39
-1.8584256 -1.6064198 1.5515656 2.8580645e-39
-1.8996215 -1.6285133 1.5648005 2.8580645e-39
0.30407894 0.13950413 1.4715288 6.6290442e-39
0.30578816 0.12454599 1.451817 6.6290442e-39
-1.8104969 -1.5340569 1.5017383 2.8580645e-39
-1.8406227 -1.5502281 1.5114284 2.8580645e-39
-1.8844292 -1.5737441 1.5255175 2.8580645e-39
-1.9238486 -1.5949037 1.538197 2.8580645e-39
0.27654469 0.17367995 1.4439449 6.6290442e-39
0.27802742 0.1590035 1.4240069 6.5368485e-39
-1.8381236 -1.499357 1.4740767 2.8580645e-39
-1.8681426 -1.5156553 1.4838688 2.8580645e-39
-1.9121183 -1.5393324 1.4980652 2.8580645e-39
-1.9511127 -1.5609515 1.5111139 2.8580645e-39
0.25039041 0.20614314 1.4177432 6.5372073e-39
0.25165761 0.19173408 1.3975904 6.5368471e-39
-1.8643627 -1.4664001 1.4478049 2.8580645e-39
-1.8942809 -1.4828193 1.4576933 2.8580645e-39
-1.9397479 -1.5077722 1.4727199 2.8580645e-39
-1.9788833 -1.5292499 1.4856541 2.8580645e-39
0.22423899 0.23860198 1.3915439 6.3524587e-39
0.22529113 0.22446132 1.3711774 6.3520986e-39
-1.8897252 -1.4318502 1.4204228 2.8580645e-39
-1.9204124 -1.4499915 1.4315233 2.8580645e-39
-1.9657264 -1.4751275 1.4466977 2.8580645e-39
-2.0047293 -1.496763 1.4597578 2.8580645e-39
0.19712722 0.27250451 1.3648028 6.1677073e-39
0.19892764 0.25718439 1.3447666 6.1677087e-39
-1.9148307 -1.3993933 1.3946044 2.8580645e-39
-1.9468729 -1.4171085 1.4052913 2.8580645e-39
-1.9930646 -1.4407721 1.4193122 2.8580645e-39
-2.0299976 -1.4614909 1.4318495 2.8580645e-39
0.17081904 0.30481029 1.3378646 6.1677101e-39
0.17256689 0.28990412 1.3183599 6.1680688e-39
-1.9410579 -1.366452 1.3683448 2.8580645e-39
-1.9725904 -1.3841133 1.3790293 2.8580645e-39
-2.0190306 -1.408143 1.3933024 2.8580645e-39
-2.057121 -1.4279163 1.4050562 2.8580645e-39
0.14422286 0.33776367 1.3111248 5.5209086e-39
