# .PCD v0.7 - Point Cloud Data file format
VERSION 0.7
FIELDS x y z rgb
SIZE 4 4 4 4
TYPE F F F F
COUNT 1 1 1 1
WIDTH 1029
HEIGHT 1
VIEWPOINT 0 0 0 1 0 0 0
POINTS 1029
DATA ascii
-0.47538605 0.31473756 2.4236999 7.3756504e-39
-0.42511314 0.31472802 2.4221635 7.3756504e-39
-0.37481612 0.31474334 2.4237444 7.3756504e-39
-0.32460621 0.31473389 2.4222083 7.3756504e-39
-0.2753979 0.3147428 2.4230089 7.3756504e-39
-0.22512604 0.31474581 2.423032 7.3756504e-39
-0.17485319 0.31474864 2.4230545 9.4039542e-39
-0.12568745 0.31474531 2.4222965 1.4290323e-38
-0.075382426 0.31476074 2.4238787 1.4290323e-38
-0.025169473 0.31475118 2.4223418 1.4290323e-38
0.025169777 0.31475407 2.422364 1.4290323e-38
0.075384609 0.31476945 2.4239459 1.4290323e-38
0.12569335 0.31475985 2.4224088 1.4290323e-38
0.17486452 0.314769 2.4232109 1.4290323e-38
0.22514479 0.31477192 2.4232328 1.4290323e-38
0.27542594 0.31477478 2.423255 1.4290323e-38
0.32464507 0.31477144 2.422498 1.4290323e-38
0.37486807 0.31478688 2.4240797 1.4290323e-38
0.4251799 0.31477734 2.4225428 1.4290323e-38
0.47546935 0.31479272 2.4241247 1.4290323e-38
0.50537091 0.30898175 2.4189224 1.4290323e-38
0.50631875 -1.0615621 2.480413 4.0566077e-39
0.50628608 -1.0245018 2.4718392 4.0566077e-39
0.50628734 -0.97465676 2.4724839 4.0566077e-39
0.50628608 -0.92558455 2.4724774 4.0566077e-39
0.50628239 -0.87576318 2.4718208 4.0566077e-39
0.50628358 -0.82522339 2.4724622 4.0566077e-39
0.50628245 -0.77540833 2.4724603 4.0566077e-39
0.50627875 -0.72558361 2.4718034 4.0566077e-39
0.50628227 -0.67504549 2.4731021 4.0566077e-39
0.50627881 -0.62522107 2.4724417 4.0566077e-39
0.50627506 -0.57469285 2.4718006 4.0566077e-39
0.50627643 -0.52411973 2.4724305 4.0566077e-39
0.50627607 -0.47505027 2.4724288 4.0566077e-39
0.50627315 -0.42521951 2.4717762 4.0566077e-39
0.50627524 -0.37469447 2.4724202 4.0566077e-39
0.50627476 -0.32488209 2.4724226 4.0566077e-39
0.50627446 -0.27581304 2.4724216 4.0566077e-39
0.50627404 -0.22525696 2.4724236 4.0566077e-39
0.50627363 -0.17470112 2.4724164 4.0566077e-39
0.50627333 -0.12488904 2.4724109 4.0566077e-39
0.50627047 -0.074363813 2.4717631 4.0566077e-39
0.50627249 -0.024534326 2.4724116 4.0566077e-39
0.50627214 0.024534302 2.4724092 4.0566077e-39
0.50626928 0.074363641 2.4717567 4.0566077e-39
0.50627142 0.12488855 2.4724021 4.0566077e-39
0.50627089 0.1747002 2.4724038 4.0566077e-39
0.50627065 0.22525543 2.4724052 1.2630801e-38
0.50627005 0.27581069 2.4723997 1.4290323e-38
-0.71301425 0.31515676 2.4776897 8.7437731e-39
-0.67502087 0.31515878 2.4777052 8.2817216e-39
-0.62361759 0.31516159 2.4777274 8.1898847e-39
-0.57444906 0.31516469 2.4777517 7.9140209e-39
-0.52527893 0.31516743 2.477773 7.2798422e-39
-0.47610837 0.31517032 2.4777966 7.3756504e-39
-0.42470142 0.31517327 2.477819 7.3756504e-39
-0.3732937 0.31517613 2.4778419 7.3756504e-39
-0.32412052 0.31517926 2.4778664 7.3756504e-39
-0.27494591 0.31518194 2.4778879 7.3756504e-39
-0.22577058 0.31518474 2.4779096 7.3756504e-39
-0.17659456 0.31518781 2.4779336 8.6663892e-39
-0.12518205 0.31519061 2.4779556 1.4290323e-38
-0.073768705 0.31519368 2.4779799 1.4290323e-38
-0.02458976 0.31519651 2.4780023 1.4290323e-38
0.024590053 0.31519932 2.4780242 1.4290323e-38
0.073770769 0.31520224 2.4780471 1.4290323e-38
0.12518795 0.31520531 2.4780712 1.4290323e-38
0.17660604 0.3152082 2.4780939 1.4290323e-38
0.22578955 0.31521109 2.4781168 1.4290323e-38
0.2749739 0.31521398 2.4781394 1.4290323e-38
0.32415909 0.31521675 2.4781611 1.4290323e-38
0.37334517 0.31521952 2.478183 1.4290323e-38
0.42476818 0.31522268 2.4782078 1.4290323e-38
0.47619197 0.3152256 2.4782307 1.4290323e-38
0.50597459 0.30845609 2.472918 1.4290323e-38
0.50650418 -1.0725951 2.5303111 4.0566077e-39
0.50649863 -1.0244051 2.5291445 4.0566077e-39
0.50649738 -0.97420824 2.5291388 4.0566077e-39
0.50649625 -0.92401159 2.5291321 4.0566077e-39
0.50649494 -0.873815 2.5291264 4.0566077e-39
0.50649172 -0.82474762 2.5285676 4.0566077e-39
0.50649256 -0.77571487 2.5291145 4.0566077e-39
0.5064913 -0.72551924 2.5291083 4.0566077e-39
0.50649011 -0.67532372 2.5291021 4.0566077e-39
0.50648886 -0.62512839 2.5290959 4.0566077e-39
0.50648767 -0.57493335 2.5290899 4.0566077e-39
0.50648695 -0.52473915 2.5290861 4.0566077e-39
0.50648654 -0.47454536 2.529084 4.0566077e-39
0.50648612 -0.42435157 2.5290825 4.0566077e-39
0.5064857 -0.37415791 2.5290802 4.0566077e-39
0.5064854 -0.32396439 2.5290785 4.0566077e-39
0.50648296 -0.27491111 2.5285237 4.0566077e-39
0.50648463 -0.22586943 2.5290749 4.0566077e-39
0.50648427 -0.17567609 2.5290725 4.0566077e-39
0.50648379 -0.12548283 2.5290709 4.0566077e-39
0.50648344 -0.075289637 2.5290687 4.0566077e-39
0.50648302 -0.025096528 2.529067 4.0566077e-39
0.50648266 0.025096506 2.5290644 4.0566077e-39
0.5064823 0.075289465 2.5290632 4.0566077e-39
0.50648189 0.12548234 2.5290606 4.0566077e-39
0.50648153 0.17567514 2.5290594 4.0566077e-39
0.50648111 0.22586788 2.5290568 1.3183975e-38
0.50647873 0.27490878 2.5285025 1.4290323e-38
-0.71716344 0.3154611 2.5157671 8.5590245e-39
-0.67404765 0.31546342 2.5157852 8.2817216e-39
-0.62412399 0.31546634 2.5158086 8.1898847e-39
-0.57419974 0.31546944 2.5158331 7.8218266e-39
-0.52427411 0.31547233 2.5158563 7.28201e-39
-0.47434768 0.31547526 2.5158799 7.3756504e-39
-0.42442006 0.31547806 2.515902 7.3756504e-39
-0.37449178 0.31548098 2.5159254 7.3756504e-39
-0.32456234 0.31548372 2.5159476 7.3756504e-39
-0.27463236 0.31548679 2.5159717 7.3756504e-39
-0.22470126 0.31548974 2.5159953 7.3756504e-39
-0.17476927 0.3154926 2.5160182 8.5741936e-39
-0.12483633 0.31549552 2.5160418 1.4290323e-38
-0.074902453 0.31549835 2.5160639 1.4290323e-38
-0.024967695 0.31550127 2.5160871 1.4290323e-38
0.024967993 0.31550416 2.5161102 1.4290323e-38
0.074904598 0.31550705 2.5161333 1.4290323e-38
0.12484214 0.31551 2.5161569 1.4290323e-38
0.17478059 0.31551296 2.5161803 1.4290323e-38
0.2247199 0.31551579 2.5162029 1.4290323e-38
0.2746602 0.31551868 2.5162263 1.4290323e-38
0.32460144 0.31552169 2.5162497 1.4290323e-38
0.37454364 0.31552461 2.5162733 1.4290323e-38
0.42448652 0.31552735 2.516295 1.4290323e-38
0.47443053 0.31553033 2.516319 1.4290323e-38
0.50592154 0.30881321 2.5275171 1.4290323e-38
0.50669104 -1.1096107 2.580471 4.0566077e-39
0.50667536 -1.0761056 2.5764518 4.0566077e-39
0.50667417 -1.0249696 2.5764456 4.0566077e-39
0.50667292 -0.9738338 2.5764389 4.0566077e-39
0.50667173 -0.9250226 2.5764327 4.0566077e-39
0.50667053 -0.8762117 2.5764267 4.0566077e-39
0.50666928 -0.82507664 2.5764205 4.0566077e-39
0.50666589 -0.77510291 2.5758407 4.0566077e-39
0.50666672 -0.72514254 2.5764081 4.0566077e-39
0.50666559 -0.67400825 2.5764015 4.0566077e-39
0.50666648 -0.62400389 2.5769691 4.0566077e-39
0.50666112 -0.57525951 2.5758164 4.0566077e-39
0.50666273 -0.52525622 2.5763874 4.0566077e-39
0.50666231 -0.47412369 2.5763853 4.0566077e-39
0.50665981 -0.42411962 2.57581 4.0566077e-39
0.50666374 -0.37537882 2.5769556 4.0566077e-39
0.50666124 -0.3253749 2.5763795 4.0566077e-39
0.50665873 -0.27540416 2.5758038 4.0566077e-39
0.50666046 -0.22544549 2.576376 4.0566077e-39
0.5066601 -0.17431338 2.5763736 4.0566077e-39
0.50666171 -0.12431037 2.5769453 4.0566077e-39
0.50665712 -0.07556878 2.5757961 4.0566077e-39
0.50665879 -0.025565905 2.5763679 4.0566077e-39
0.50665849 0.025565881 2.5763657 4.0566077e-39
0.50665599 0.075568587 2.5757899 4.0566077e-39
0.50665981 0.1243099 2.5769353 4.0566077e-39
0.50665742 0.17431246 2.5763597 4.0566077e-39
0.50665689 0.22544394 2.5763578 1.3460562e-38
0.50665444 0.27540183 2.5757823 1.4290323e-38
-0.75395072 0.31609738 2.5955324 9.2987392e-39
-0.72362548 0.31594461 2.5762532 8.4664702e-39
-0.67487365 0.31593201 2.5743475 8.1898861e-39
-0.62491566 0.31594267 2.5753362 8.0976904e-39
-0.57380968 0.31594566 2.5753603 7.4562909e-39
-0.52384311 0.3159408 2.574419 7.3756504e-39
-0.47510093 0.3159593 2.5763731 7.3756504e-39
-0.42513236 0.31595433 2.5754309 7.3756504e-39
-0.3752189 0.31594953 2.5744901 7.3756504e-39
-0.32525355 0.31596014 2.5754781 7.3756504e-39
-0.27414209 0.31596321 2.5755029 7.3756504e-39
-0.22417159 0.31595826 2.5745611 7.3756504e-39
-0.17542055 0.31597665 2.5765145 7.7444329e-39
-0.12544833 0.31597176 2.5755732 1.4198127e-38
-0.075530887 0.31596693 2.5746319 1.4290323e-38
-0.025558442 0.3159776 2.5756202 1.4290323e-38
0.025558764 0.31598055 2.5756447 1.4290323e-38
0.07553307 0.31597579 2.5747039 1.4290323e-38
0.12545419 0.31598639 2.5756919 1.4290323e-38
0.175432 0.31599703 2.5766811 1.4290323e-38
0.22419012 0.31598431 2.5747733 1.4290323e-38
0.27416983 0.31599504 2.5757632 1.4290323e-38
0.32529259 0.31599796 2.5757866 1.4290323e-38
0.37527078 0.31599316 2.5748456 1.4290323e-38
0.42519912 0.31600383 2.5758343 1.4290323e-38
0.47518411 0.31601459 2.5768237 1.4290323e-38
0.50553447 0.31037617 2.575388 1.4290323e-38
0.50686437 -1.1183144 2.6271245 4.0566077e-39
0.50685751 -1.0752971 2.6255555 4.0566077e-39
0.50685626 -1.0255553 2.6255491 4.0566077e-39
0.50685507 -0.97581369 2.6255426 4.0566077e-39
0.50685382 -0.92607218 2.6255362 4.0566077e-39
0.50685036 -0.8751229 2.624934 4.0566077e-39
0.50685364 -0.82542938 2.6261191 4.0566077e-39
0.50684804 -0.77566385 2.6249218 4.0566077e-39
0.50684893 -0.72475147 2.6255109 4.0566077e-39
0.50684774 -0.67501128 2.6255045 4.0566077e-39
0.50684649 -0.62527132 2.6254983 4.0566077e-39
0.50684571 -0.5755319 2.625494 4.0566077e-39
0.5068453 -0.52579319 2.6254921 4.0566077e-39
0.50684267 -0.47482458 2.6248939 4.0566077e-39
0.50684673 -0.4251774 2.6260834 4.0566077e-39
0.50684184 -0.37537017 2.6248903 4.0566077e-39
0.50684595 -0.32567802 2.6260796 4.0566077e-39
0.50684106 -0.27591601 2.624886 4.0566077e-39
0.50684297 -0.22500537 2.6254797 4.0566077e-39
0.50684255 -0.17526719 2.6254776 4.0566077e-39
0.5068422 -0.12552913 2.6254754 4.0566077e-39
0.50684178 -0.075791106 2.6254735 4.0566077e-39
0.50684142 -0.026053179 2.6254718 4.0566077e-39
0.50684094 0.026053153 2.6254699 4.0566077e-39
0.50684059 0.075790949 2.6254675 4.0566077e-39
0.50684023 0.12552863 2.6254656 4.0566077e-39
0.50683987 0.17526627 2.625464 4.0566077e-39
0.50683951 0.22500385 2.6254618 1.3460562e-38
0.50683683 0.27591366 2.6248639 1.4290323e-38
-0.76133806 0.31643116 2.6373448 8.9285231e-39
-0.72565514 0.31643325 2.6373625 8.3739158e-39
-0.67569846 0.31643629 2.6373878 8.1895259e-39
-0.62574083 0.31643936 2.6374133 7.9136607e-39
-0.57578188 0.31644213 2.6374369 7.2751493e-39
-0.5258221 0.31644499 2.6374607 7.3756504e-39
-0.4758617 0.31644809 2.637486 7.3756504e-39
-0.4259001 0.31645095 2.6375101 7.3756504e-39
-0.37593752 0.31645378 2.6375337 7.3756504e-39
-0.32597411 0.31645662 2.6375577 7.3756504e-39
-0.2760098 0.3164596 2.6375823 7.3756504e-39
-0.22604471 0.31646267 2.6376076 7.3756504e-39
-0.17607853 0.31646553 2.6376317 7.3756504e-39
-0.12611139 0.3164683 2.637655 1.3829344e-38
-0.076143429 0.31647128 2.6376796 1.4290323e-38
-0.026174504 0.31647411 2.6377032 1.4290323e-38
0.026174843 0.31647715 2.6377282 1.4290323e-38
0.076145656 0.31648025 2.6377544 1.4290323e-38
0.12611738 0.31648311 2.6377783 1.4290323e-38
0.17608997 0.316486 2.6378024 1.4290323e-38
0.2260635 0.31648886 2.637826 1.4290323e-38
0.27603805 0.31649181 2.637851 1.4290323e-38
0.32601345 0.31649476 2.6378753 1.4290323e-38
0.37598968 0.31649756 2.6378989 1.4290323e-38
0.42596704 0.31650063 2.637924 1.4290323e-38
0.47594509 0.31650347 2.6379476 1.4290323e-38
0.50625503 0.31004244 2.6285837 1.4290323e-38
0.50707281 -1.1557499 2.6830773 4.0566077e-39
0.50704795 -1.1251662 2.676573 4.0566077e-39
0.5070467 -1.0744576 2.6765671 4.0566077e-39
0.50704545 -1.0237491 2.6765606 4.0566077e-39
0.50704432 -0.97545576 2.6765542 4.0566077e-39
0.507043 -0.92474782 2.6765478 4.0566077e-39
0.50704181 -0.87404031 2.6765411 4.0566077e-39
0.50703835 -0.82452792 2.675916 4.0566077e-39
0.50703937 -0.77505219 2.6765282 4.0566077e-39
0.5070405 -0.72554207 2.6771407 4.0566077e-39
0.5070346 -0.67485654 2.6758964 4.0566077e-39
0.50703579 -0.62534696 2.6765091 4.0566077e-39
0.50703526 -0.57464147 2.6765063 4.0566077e-39
0.5070349 -0.52393645 2.6765044 4.0566077e-39
0.50703454 -0.47564593 2.6765022 4.0566077e-39
0.507034 -0.42494094 2.6765001 4.0566077e-39
0.50703365 -0.37423605 2.6764984 4.0566077e-39
0.50703108 -0.32472679 2.6758771 4.0566077e-39
0.50703299 -0.27525279 2.6764941 4.0566077e-39
0.50703478 -0.22574429 2.6771107 4.0566077e-39
0.50702983 -0.17506199 2.6758711 4.0566077e-39
0.5070318 -0.12555364 2.6764877 4.0566077e-39
0.50703138 -0.074849218 2.6764865 4.0566077e-39
0.5070309 -0.024144894 2.6764836 4.0566077e-39
0.50703061 0.024144869 2.6764824 4.0566077e-39
0.50703013 0.074849047 2.6764796 4.0566077e-39
0.50702983 0.12555315 2.6764779 4.0566077e-39
0.50702715 0.17506106 2.6758564 4.1488033e-39
0.50703138 0.2257427 2.6770926 1.4290323e-38
0.5070287 0.27525049 2.6764717 1.4290323e-38
-0.76655024 0.31677634 2.6805308 8.6515789e-39
-0.72544748 0.31677875 2.6805511 8.3739158e-39
-0.67467237 0.31678164 2.6805761 8.1898847e-39
-0.62389648 0.31678468 2.6806014 7.729631e-39
-0.57553756 0.31678754 2.6806254 7.1858417e-39
-0.52475971 0.31679046 2.6806502 7.3756504e-39
-0.4739809 0.31679335 2.6806748 7.3756504e-39
-0.42561936 0.31679624 2.6806993 7.3756504e-39
-0.37483865 0.31679919 2.6807241 7.3756504e-39
-0.32405701 0.31680205 2.680748 7.3756504e-39
-0.27569288 0.31680501 2.6807735 7.3756504e-39
-0.22490945 0.31680802 2.680799 7.3756504e-39
-0.17412499 0.31681079 2.6808224 7.3756504e-39
-0.12575808 0.31681377 2.6808476 1.3552758e-38
-0.074971862 0.31681678 2.6808729 1.4290323e-38
-0.024184663 0.31681961 2.680897 1.4290323e-38
0.024184961 0.31682247 2.6809213 1.4290323e-38
0.074973986 0.31682536 2.6809459 1.4290323e-38
0.12576403 0.31682849 2.6809723 1.4290323e-38
0.17413628 0.3168312 2.6809955 1.4290323e-38
0.22492814 0.31683418 2.6810203 1.4290323e-38
0.27572098 0.31683722 2.681046 1.4290323e-38
0.3240959 0.31684002 2.6810696 1.4290323e-38
0.37489054 0.31684297 2.6810949 1.4290323e-38
0.42568618 0.31684595 2.6811197 1.4290323e-38
0.47406378 0.31684873 2.6811433 1.4290323e-38
0.50614792 0.30981022 2.6760664 1.4290323e-38
0.50725728 -1.1664166 2.7327325 4.0566077e-39
0.50724232 -1.1240885 2.7289629 4.0566077e-39
0.50724351 -1.0735844 2.7296004 4.0566077e-39
0.5072422 -1.0243341 2.7295938 4.0566077e-39
0.50724101 -0.97508371 2.7295868 4.0566077e-39
0.50723976 -0.9258337 2.7295804 4.0566077e-39
0.50723618 -0.87532818 2.7289302 4.0566077e-39
0.50723737 -0.82488394 2.7295673 4.0566077e-39
0.50723618 -0.77563459 2.7295611 4.0566077e-39
0.50723737 -0.72514331 2.7301981 4.0566077e-39
0.50723374 -0.67466187 2.7295477 4.0566077e-39
0.5072304 -0.62421721 2.7288992 4.0566077e-39
0.50723243 -0.57371587 2.7295403 4.0566077e-39
0.50723201 -0.52446836 2.7295387 4.0566077e-39
0.50723159 -0.4752211 2.7295363 4.0566077e-39
0.50723124 -0.4259738 2.7295346 4.0566077e-39
0.50722837 -0.37547153 2.7288883 4.0566077e-39
0.50723046 -0.32502931 2.7295303 4.0566077e-39
0.5072301 -0.27578223 2.7295284 4.0566077e-39
0.50723207 -0.22529243 2.7301698 4.0566077e-39
0.50722927 -0.17481378 2.7295237 4.0566077e-39
0.50722641 -0.12437112 2.728878 4.0566077e-39
0.50722843 -0.073870003 2.7295198 4.0566077e-39
0.50722814 -0.02462332 2.7295175 4.0566077e-39
0.50722772 0.024623293 2.7295156 4.0566077e-39
0.50722742 0.073869824 2.7295134 4.0566077e-39
0.50722456 0.12437066 2.7288678 4.0566077e-39
0.50722659 0.17481282 2.7295091 4.1488033e-39
0.50722855 0.22529091 2.7301509 1.4290323e-38
0.50722575 0.27577987 2.7295053 1.4290323e-38
-0.77439475 0.3171331 2.7251551 8.5593833e-39
-0.72523326 0.3171359 2.7251792 8.2820803e-39
-0.67361325 0.31713912 2.7252069 8.0976904e-39
-0.62444985 0.31714189 2.7252307 7.637078e-39
-0.57528585 0.31714475 2.7252555 7.1883711e-39
-0.52612078 0.31714758 2.72528 7.3756504e-39
-0.47695494 0.3171505 2.7253046 7.3756504e-39
-0.42532989 0.31715351 2.7253308 7.3756504e-39
-0.3737036 0.3171564 2.7253556 7.3756504e-39
-0.32453513 0.31715935 2.7253807 7.3756504e-39
-0.27536562 0.31716225 2.7254055 7.3756504e-39
-0.22619525 0.31716508 2.72543 7.3756504e-39
-0.17702396 0.317168 2.725455 7.3756504e-39
-0.12539317 0.31717104 2.7254815 1.3091779e-38
-0.073761374 0.31717411 2.7255073 1.4290323e-38
-0.024587318 0.31717694 2.7255321 1.4290323e-38
0.02458762 0.31717974 2.7255559 1.4290323e-38
0.07376346 0.31718272 2.7255816 1.4290323e-38
0.12539901 0.31718561 2.7256062 1.4290323e-38
0.1770356 0.31718868 2.7256329 1.4290323e-38
0.22621426 0.31719169 2.7256589 1.4290323e-38
0.27539366 0.3171944 2.725682 1.4290323e-38
0.32457399 0.31719729 2.7257066 1.4290323e-38
0.37375525 0.31720018 2.7257314 1.4290323e-38
0.42539674 0.31720334 2.7257586 1.4290323e-38
0.47703877 0.31720614 2.7257831 1.4290323e-38
0.50682729 0.31000158 2.7273505 1.4290323e-38
0.50750357 -1.206899 2.7988682 4.0566077e-39
0.50745058 -1.1756815 2.7847912 4.0566077e-39
0.50744939 -1.1254351 2.7847848 4.0566077e-39
0.50744814 -1.0751889 2.7847781 4.0566077e-39
0.50744689 -1.0249424 2.784771 4.0566077e-39
0.50744569 -0.97469676 2.7847643 4.0566077e-39
0.5074445 -0.92445105 2.7847576 4.0566077e-39
0.50744319 -0.87420571 2.7847507 4.0566077e-39
0.507442 -0.82396048 2.784744 4.0566077e-39
0.50743818 -0.77497023 2.7839971 4.0566077e-39
0.50743955 -0.7259959 2.7847307 4.0566077e-39
0.50743848 -0.67575151 2.7847245 4.0566077e-39
0.50743783 -0.62550807 2.7847214 4.0566077e-39
0.50743753 -0.57526505 2.784719 4.0566077e-39
0.50743699 -0.52502197 2.7847171 4.0566077e-39
0.50743675 -0.47477904 2.7847147 4.0566077e-39
0.50743628 -0.42453629 2.7847133 4.0566077e-39
0.50743592 -0.37429351 2.7847106 4.0566077e-39
0.50743556 -0.32405078 2.7847085 4.0566077e-39
0.50743234 -0.27506351 2.7839653 4.0566077e-39
0.50743479 -0.22609046 2.7847047 4.0566077e-39
0.50743449 -0.17584799 2.7847021 4.0566077e-39
0.50743401 -0.12560561 2.7846999 4.0566077e-39
0.50743353 -0.075363308 2.7846982 4.0566077e-39
0.50743324 -0.025121087 2.7846954 4.0566077e-39
0.50743282 0.025121063 2.7846942 4.0566077e-39
0.50743246 0.075363129 2.7846916 4.0566077e-39
0.5074321 0.12560514 2.7846899 4.0566077e-39
0.50743169 0.17584705 2.7846873 4.978564e-39
0.50743127 0.22608888 2.7846847 1.4290323e-38
0.50742817 0.27506122 2.7839422 1.4290323e-38
-0.8050009 0.31750035 2.7712765 9.2990979e-39
-0.7750051 0.31750214 2.771292 8.4664702e-39
-0.72501147 0.31750506 2.7713175 8.1895259e-39
-0.67501676 0.31750792 2.7713428 8.0976904e-39
-0.62502146 0.3175109 2.7713685 7.4537658e-39
-0.57502496 0.31751382 2.7713943 7.2827331e-39
-0.52502751 0.31751665 2.771419 7.3756504e-39
-0.47502938 0.31751972 2.7714455 7.3756504e-39
-0.42503023 0.31752262 2.771471 7.3756504e-39
-0.37503007 0.31752545 2.7714958 7.3756504e-39
-0.32502902 0.31752843 2.7715216 7.3756504e-39
-0.27502698 0.3175312 2.7715459 7.3756504e-39
-0.2250243 0.31753436 2.7715731 7.3756504e-39
-0.1750205 0.31753725 2.7715986 7.3756504e-39
-0.12501578 0.3175402 2.7716241 1.2722997e-38
-0.075010143 0.31754309 2.7716496 1.4290323e-38
-0.025003586 0.31754601 2.7716749 1.4290323e-38
0.025003895 0.31754893 2.7717009 1.4290323e-38
0.075012282 0.31755179 2.7717254 1.4290323e-38
0.12502162 0.31755477 2.7717519 1.4290323e-38
0.17503183 0.31755769 2.7717769 1.4290323e-38
0.22504306 0.3175607 2.7718034 1.4290323e-38
0.27505508 0.31756353 2.7718282 1.4290323e-38
0.32506818 0.31756654 2.7718542 1.4290323e-38
0.37508205 0.31756943 2.7718794 1.4290323e-38
0.42509684 0.31757233 2.7719049 1.4290323e-38
0.47511262 0.31757528 2.7719305 1.4290323e-38
0.50689626 0.30993086 2.7832665 1.4290323e-38
0.50761026 -1.2116325 2.8275914 4.0566077e-39
0.50760925 -1.1733682 2.8275864 4.0566077e-39
0.50760812 -1.1249003 2.8275797 4.0566077e-39
0.50760686 -1.0764328 2.8275731 4.0566077e-39
0.50760567 -1.0254145 2.8275659 4.0566077e-39
0.50760442 -0.97439641 2.8275592 4.0566077e-39
0.50760317 -0.92337865 2.8275523 4.0566077e-39
0.50760198 -0.87491202 2.8275456 4.0566077e-39
0.50760078 -0.82644558 2.827539 4.0566077e-39
0.50759959 -0.77542853 2.8275321 4.0566077e-39
0.50759828 -0.72441167 2.8275249 4.0566077e-39
0.50759733 -0.67339551 2.8275197 4.0566077e-39
0.50759697 -0.62493104 2.8275175 4.0566077e-39
0.50759655 -0.57646644 2.8275156 4.0566077e-39
0.50759614 -0.5254513 2.8275132 4.0566077e-39
0.50759584 -0.47443628 2.8275113 4.0566077e-39
0.50759542 -0.42342129 2.8275089 4.0566077e-39
0.50759494 -0.37495708 2.8275063 4.0566077e-39
0.50759459 -0.326493 2.8275044 4.0566077e-39
0.50759423 -0.27547827 2.827502 4.0566077e-39
0.50759375 -0.22446358 2.8275001 4.0566077e-39
0.50759345 -0.17344901 2.827498 4.0566077e-39
0.50759304 -0.12498523 2.8274956 4.0566077e-39
0.50759262 -0.076521516 2.8274934 4.0566077e-39
0.5075922 -0.025507148 2.8274913 4.0566077e-39
0.50759184 0.025507126 2.8274894 4.0566077e-39
0.50759143 0.076521322 2.8274868 4.0566077e-39
0.50759107 0.12498474 2.8274851 4.0566077e-39
0.50759071 0.1734481 2.8274829 5.0707596e-39
0.50759035 0.22446206 2.8274808 1.4290323e-38
0.50758994 0.27547592 2.8274782 1.4290323e-38
-0.81123477 0.31788197 2.819001 8.8366862e-39
-0.77309388 0.31788403 2.8190198 8.4661114e-39
-0.72478205 0.31788692 2.8190448 8.1895259e-39
-0.67646945 0.31788981 2.8190703 7.9136593e-39
-0.6256128 0.31789267 2.8190961 7.2719025e-39
-0.57475531 0.31789562 2.8191226 7.3756504e-39
-0.52389681 0.31789857 2.8191478 7.3756504e-39
-0.47303766 0.31790167 2.819176 7.3756504e-39
-0.42472023 0.31790441 2.8192 7.3756504e-39
-0.3764022 0.3179073 2.8192258 7.3756504e-39
-0.32554013 0.31791031 2.8192527 7.3756504e-39
-0.27467707 0.31791335 2.8192794 7.3756504e-39
-0.22381291 0.31791613 2.819304 7.3756504e-39
-0.17294799 0.31791914 2.8193307 7.3756504e-39
-0.12462543 0.31792209 2.8193567 1.2630801e-38
-0.076301947 0.31792495 2.8193822 1.4290323e-38
-0.025434192 0.3179279 2.8194082 1.4290323e-38
0.025434498 0.31793082 2.8194342 1.4290323e-38
0.07630419 0.31793395 2.8194621 1.4290323e-38
0.12463114 0.31793648 2.8194847 1.4290323e-38
0.17295912 0.31793952 2.8195117 1.4290323e-38
0.22383158 0.31794253 2.8195384 1.4290323e-38
0.27470487 0.31794542 2.8195639 1.4290323e-38
0.3255792 0.3179484 2.8195903 1.4290323e-38
0.37645453 0.31795141 2.819617 1.4290323e-38
0.42478678 0.31795418 2.8196414 1.4290323e-38
0.47312015 0.31795707 2.8196673 1.4290323e-38
0.50601232 0.31236437 2.8243585 1.4290323e-38
0.50778455 -1.2219591 2.8745189 4.8863684e-39
0.50777072 -1.1748903 2.8710837 4.0566077e-39
0.50777239 -1.124356 2.8718646 4.0566077e-39
0.50777125 -1.0751293 2.8718576 4.0566077e-39
0.50776994 -1.025903 2.871851 4.0566077e-39
0.50776869 -0.97408593 2.8718436 4.0566077e-39
0.50776744 -0.92485988 2.8718367 4.0566077e-39
0.50776637 -0.87563401 2.8718297 4.0566077e-39
0.50776213 -0.82509816 2.8710353 4.0566077e-39
0.50776672 -0.77590293 2.8726041 4.0566077e-39
0.50776261 -0.72536743 2.8718092 4.0566077e-39
0.50775898 -0.67487413 2.8710175 4.0566077e-39
0.50776154 -0.62434256 2.8718028 4.0566077e-39
0.50776124 -0.5751189 2.8718009 4.0566077e-39
0.5077607 -0.5258956 2.8717983 4.0566077e-39
0.50776041 -0.47408152 2.8717966 4.0566077e-39
0.50775993 -0.42485821 2.8717937 4.0566077e-39
0.50775957 -0.37563497 2.8717923 4.0566077e-39
0.50775629 -0.32510224 2.871002 4.0566077e-39
0.50776178 -0.27590767 2.8725755 4.0566077e-39
0.50775838 -0.22537506 2.8717856 4.0566077e-39
0.5077551 -0.17488375 2.8709953 4.0566077e-39
0.50775766 -0.12435211 2.8717809 4.0566077e-39
0.50775731 -0.075129353 2.8717787 4.0566077e-39
0.50775683 -0.025906656 2.8717768 4.0566077e-39
0.50775647 0.025906626 2.8717742 4.0566077e-39
0.50775611 0.075129181 2.8717721 4.0566077e-39
0.5077557 0.12435162 2.8717704 4.0566077e-39
0.50775248 0.17488283 2.87098 5.3473465e-39
0.50775492 0.22537351 2.8717661 1.4290323e-38
0.50775748 0.27590537 2.8725512 1.4290323e-38
-0.82027429 0.31827679 2.8683968 8.7437731e-39
-0.7762903 0.31827903 2.8684173 8.3742745e-39
-0.72454488 0.31828225 2.8684459 8.1898847e-39
-0.67538518 0.31828499 2.8684709 7.8211064e-39
-0.62622517 0.318288 2.8684978 7.1825949e-39
-0.57447654 0.31829107 2.8685253 7.3756504e-39
-0.52531439 0.31829393 2.8685515 7.3756504e-39
-0.47615123 0.31829679 2.8685768 7.3756504e-39
-0.42439961 0.31829974 2.8686037 7.3756504e-39
-0.37523508 0.3183029 2.8686321 7.3756504e-39
-0.32606909 0.31830558 2.8686566 7.3756504e-39
-0.27431476 0.31830868 2.8686845 7.3756504e-39
-0.22514728 0.31831169 2.8687115 7.3756504e-39
-0.1759786 0.31831434 2.8687348 7.3756504e-39
-0.12422138 0.31831738 2.8687627 1.1893236e-38
-0.075051099 0.31832033 2.8687894 1.4290323e-38
-0.025879886 0.31832308 2.8688142 1.4290323e-38
0.025880227 0.31832626 2.8688426 1.4290323e-38
0.075053215 0.31832901 2.8688674 1.4290323e-38
0.12422715 0.31833202 2.8688941 1.4290323e-38
0.17599019 0.31833515 2.8689227 1.4290323e-38
0.22516578 0.31833783 2.868947 1.4290323e-38
0.27434254 0.31834084 2.868974 1.4290323e-38
0.3261084 0.31834391 2.8690019 1.4290323e-38
0.3752867 0.31834662 2.8690259 1.4290323e-38
0.42446628 0.31834969 2.8690536 1.4290323e-38
0.47623485 0.31835264 2.8690803 1.4290323e-38
0.5073666 0.31063369 2.8695583 1.4290323e-38
0.508017 -1.2604581 2.9369295 1.6410822e-38
0.50800163 -1.2250305 2.9330223 9.4961499e-39
0.50800049 -1.1747556 2.9330151 4.0566077e-39
0.50799918 -1.1244804 2.933008 4.0566077e-39
0.50799805 -1.0742058 2.9330006 4.0566077e-39
0.50799674 -1.0239311 2.9329932 4.0566077e-39
0.50799251 -0.97492266 2.9321651 4.0566077e-39
0.50799739 -0.92476302 2.9338014 4.0566077e-39
0.50799 -0.87440312 2.9321511 4.0566077e-39
0.50799495 -0.82418758 2.9337869 4.0566077e-39
0.5079875 -0.77388436 2.9321365 4.0566077e-39
0.50798965 -0.72494954 2.9329524 4.0566077e-39
0.50798917 -0.67467779 2.9329498 4.0566077e-39
0.50798881 -0.62440616 2.9329479 4.0566077e-39
0.50798833 -0.57413453 2.9329455 4.0566077e-39
0.50798804 -0.52386308 2.9329431 4.0566077e-39
0.50798464 -0.47485822 2.9321194 4.0566077e-39
0.5079903 -0.42469969 2.9337606 4.0566077e-39
0.50798386 -0.37434381 2.9321148 4.0566077e-39
0.50798947 -0.32412907 2.9337559 4.0566077e-39
0.50798303 -0.2738297 2.9321105 4.0566077e-39
0.50798577 -0.22489575 2.9329298 4.0566077e-39
0.50798523 -0.17462477 2.9329274 4.0566077e-39
0.50798488 -0.12435392 2.9329252 4.0566077e-39
0.50798452 -0.074083135 2.9329233 4.0566077e-39
0.50798416 -0.023812421 2.9329212 4.0566077e-39
0.5079838 0.023812396 2.9329185 4.0566077e-39
0.50798333 0.074082956 2.9329164 4.0566077e-39
0.50798303 0.12435344 2.9329138 4.0566077e-39
0.50798267 0.17462386 2.9329119 5.9927159e-39
0.50798219 0.22489418 2.93291 1.4290323e-38
0.50797874 0.2738274 2.9320855 1.4290323e-38
-0.85070217 0.3186841 2.9195397 9.3912935e-39
-0.82436854 0.31868565 2.919554 8.5590245e-39
-0.77433401 0.31868848 2.9195805 8.3739158e-39
-0.72429872 0.31869143 2.9196069 8.1898847e-39
-0.67426252 0.31869444 2.9196343 7.5452411e-39
-0.62422574 0.31869757 2.919663 7.186206e-39
-0.57418716 0.31870025 2.9196877 7.3756504e-39
-0.52414858 0.31870344 2.9197168 7.3756504e-39
-0.47410816 0.3187061 2.9197414 7.3756504e-39
-0.42406741 0.31870911 2.9197688 7.3756504e-39
-0.37402552 0.31871197 2.9197948 7.3756504e-39
-0.32398313 0.31871518 2.9198241 7.3756504e-39
-0.27393931 0.3187179 2.9198492 7.3756504e-39
-0.22389483 0.31872094 2.9198771 7.3756504e-39
-0.17384931 0.31872383 2.9199035 7.3756504e-39
-0.12380295 0.31872681 2.9199314 1.1432258e-38
-0.073755607 0.31872973 2.9199576 1.4290323e-38
-0.023707347 0.31873262 2.9199839 1.4290323e-38
0.023707626 0.31873545 2.9200101 1.4290323e-38
0.073757686 0.3187384 2.920037 1.4290323e-38
0.12380866 0.31874138 2.9200644 1.4290323e-38
0.17386052 0.31874424 2.9200904 1.4290323e-38
0.22391333 0.31874719 2.9201176 1.4290323e-38
0.27396706 0.31875008 2.9201446 1.4290323e-38
0.32402179 0.31875309 2.9201722 1.4290323e-38
0.37407726 0.31875598 2.9201982 1.4290323e-38
0.42413402 0.31875908 2.9202266 1.4290323e-38
0.47419119 0.31876183 2.9202518 1.4290323e-38
0.50744718 0.31056997 2.9315019 1.4290323e-38
0.50817895 -1.2691029 2.9805353 1.6410822e-38
0.50817788 -1.2233911 2.9805288 1.3276171e-38
0.50817662 -1.1749904 2.9805217 4.0566077e-39
0.50817549 -1.1265901 2.9805148 4.0566077e-39
0.50817424 -1.075501 2.9805074 4.0566077e-39
0.50817299 -1.0244122 2.9805002 4.0566077e-39
0.5081718 -0.97601253 2.9804931 4.0566077e-39
0.50817049 -0.92492419 2.9804854 4.0566077e-39
0.50816929 -0.8738361 2.9804785 4.0566077e-39
0.50816804 -0.82543713 2.9804716 4.0566077e-39
0.50816691 -0.77434957 2.9804642 4.0566077e-39
0.50816613 -0.72326297 2.9804602 4.0566077e-39
0.50816578 -0.67486566 2.9804583 4.0566077e-39
0.50816536 -0.62646848 2.9804556 4.0566077e-39
0.508165 -0.57538259 2.9804533 4.0566077e-39
0.50816464 -0.52429676 2.9804511 4.0566077e-39
0.50816423 -0.47589985 2.9804487 4.0566077e-39
0.50816381 -0.42481416 2.9804466 4.0566077e-39
0.50816345 -0.37372866 2.9804442 4.0566077e-39
0.50816309 -0.32533193 2.980442 4.0566077e-39
0.50816262 -0.27424651 2.9804394 4.0566077e-39
0.50816226 -0.22316122 2.9804373 4.0566077e-39
0.50816184 -0.17476469 2.9804351 4.0566077e-39
0.50816154 -0.12636822 2.9804327 4.0566077e-39
0.50816107 -0.075283132 2.9804304 4.0566077e-39
0.50816071 -0.024198133 2.980428 4.0566077e-39
0.50816035 0.024198109 2.9804258 4.0566077e-39
0.50815994 0.075282954 2.9804237 4.0566077e-39
0.50815958 0.12636772 2.9804213 4.0566077e-39
0.50815916 0.17476374 2.9804189 6.2693028e-39
0.5081588 0.22315969 2.9804168 1.4290323e-38
0.50815839 0.27424425 2.9804146 1.4290323e-38
-0.85810471 0.31910768 2.9725535 9.0214362e-39
-0.82324988 0.31910995 2.9725745 8.5586644e-39
-0.77498817 0.31911278 2.9726009 8.2817216e-39
-0.72672546 0.31911561 2.9726269 8.0976904e-39
-0.67578065 0.31911865 2.9726555 7.4530469e-39
-0.62483436 0.31912148 2.9726818 7.189813e-39
-0.57656968 0.31912461 2.9727113 7.3756504e-39
-0.52562129 0.31912726 2.9727359 7.3756504e-39
-0.47467294 0.31913045 2.9727652 7.3756504e-39
-0.42640507 0.3191334 2.9727929 7.3756504e-39
-0.37545437 0.3191362 2.9728196 7.3756504e-39
-0.32450289 0.31913924 2.9728472 7.3756504e-39
-0.27623215 0.31914207 2.9728737 7.3756504e-39
-0.22527881 0.31914508 2.9729016 7.3756504e-39
-0.17432454 0.31914806 2.97293 7.3756504e-39
-0.12605116 0.31915087 2.9729562 1.0694693e-38
-0.075094998 0.31915399 2.9729848 1.4290323e-38
-0.024137877 0.31915689 2.973012 1.4290323e-38
0.024138177 0.31915987 2.9730392 1.4290323e-38
0.075097151 0.31916273 2.9730659 1.4290323e-38
0.12605709 0.31916577 2.9730947 1.4290323e-38
0.17433578 0.31916848 2.9731202 1.4290323e-38
0.22529766 0.31917161 2.9731488 1.4290323e-38
0.27626047 0.31917465 2.9731772 1.4290323e-38
0.32454175 0.31917736 2.9732025 1.4290323e-38
0.37550655 0.31918049 2.9732316 1.4290323e-38
0.42647192 0.31918335 2.9732583 1.4290323e-38
0.47475618 0.31918633 2.9732862 1.4290323e-38
0.50660014 0.31319314 2.9775677 1.4290323e-38
0.50839353 -1.3086858 3.0381215 1.6410822e-38
0.50836515 -1.2750136 3.0306644 1.6410822e-38
0.50836062 -1.2244296 3.0297804 1.604204e-38
0.50835937 -1.1752291 3.029773 5.9005203e-39
0.50835484 -1.1247039 3.0288887 4.0566077e-39
0.50835687 -1.0741106 3.0297587 4.0566077e-39
0.50835574 -1.0249109 3.0297513 4.0566077e-39
0.50835443 -0.97571152 3.0297441 4.0566077e-39
0.50835329 -0.92651218 3.0297368 4.0566077e-39
0.50834882 -0.8759163 3.0288529 4.0566077e-39
0.50835085 -0.82539624 3.029722 4.0566077e-39
0.50835288 -0.77483213 3.0305924 4.0566077e-39
0.5083493 -0.7242524 3.0297124 4.0566077e-39
0.50834876 -0.67505527 3.0297101 4.0566077e-39
0.50834519 -0.62453437 3.0288315 4.0566077e-39
0.50834805 -0.57394332 3.029706 4.0566077e-39
0.50834769 -0.52474654 3.0297036 4.0566077e-39
0.50834727 -0.47554976 3.0297012 4.0566077e-39
0.50834697 -0.4263531 3.0296988 4.0566077e-39
0.50834322 -0.37576056 3.0288196 4.0566077e-39
0.5083462 -0.32524183 3.0296943 4.0566077e-39
0.508349 -0.27467886 3.0305684 4.0566077e-39
0.50834537 -0.22410086 3.0296891 4.0566077e-39
0.50834495 -0.17490454 3.0296872 4.0566077e-39
0.50834131 -0.12438519 3.0288076 4.0566077e-39
0.50834417 -0.073794082 3.0296829 4.0566077e-39
0.50834382 -0.02459801 3.0296803 4.0566077e-39
0.50834346 0.024597986 3.0296774 4.0566077e-39
0.50834298 0.07379391 3.0296757 4.0566077e-39
0.50833941 0.12438473 3.0287967 4.0566077e-39
0.50834227 0.17490357 3.0296712 6.5458897e-39
0.50834185 0.22409932 3.0296688 1.4290323e-38
0.50834477 0.27467656 3.0305431 1.4290323e-38
-0.86851305 0.31954724 3.0275307 8.928163e-39
-0.8248204 0.31954965 3.0275538 8.4664702e-39
-0.77293509 0.31955266 3.0275822 8.2817202e-39
-0.7237798 0.31955561 3.0276103 7.9133006e-39
-0.67462331 0.31955844 3.027637 7.270099e-39
-0.62546641 0.31956142 3.0276654 7.3756504e-39
-0.57630831 0.31956431 3.0276926 7.3756504e-39
-0.52714932 0.3195672 3.02772 7.3756504e-39
-0.47525841 0.31957033 3.0277495 7.3756504e-39
-0.42336613 0.31957319 3.0277767 7.3756504e-39
-0.3742047 0.31957629 3.0278063 7.3756504e-39
-0.32504192 0.31957906 3.0278325 7.3756504e-39
-0.27587843 0.31958199 3.0278597 7.3756504e-39
-0.22671403 0.31958491 3.0278881 7.3756504e-39
-0.17481723 0.31958786 3.0279155 7.3756504e-39
-0.12291959 0.31959099 3.0279453 1.0418106e-38
-0.073752388 0.31959385 3.0279722 1.4290323e-38
-0.024584329 0.31959677 3.0280004 1.4290323e-38
0.024584636 0.31959975 3.0280287 1.4290323e-38
0.073754475 0.31960255 3.028055 1.4290323e-38
0.12292525 0.3196055 3.0280828 1.4290323e-38
0.17482868 0.3196086 3.0281119 1.4290323e-38
0.22673307 0.31961161 3.0281405 1.4290323e-38
0.27590653 0.31961447 3.0281677 1.4290323e-38
0.32508096 0.31961739 3.0281954 1.4290323e-38
0.37425622 0.31962028 3.0282228 1.4290323e-38
0.42343244 0.3196232 3.0282505 1.4290323e-38
0.47534162 0.31962624 3.0282793 1.4290323e-38
0.50796509 0.31133533 3.0274112 1.4290323e-38
0.508551 -1.3172305 3.0805113 1.6410822e-38
0.50855005 -1.2755435 3.0805047 1.6410822e-38
0.50854874 -1.2255192 3.0804977 1.6410822e-38
0.50854754 -1.1754951 3.0804901 1.0141519e-38
0.50854629 -1.1254715 3.080483 4.0566077e-39
0.50854504 -1.0754478 3.0804753 4.0566077e-39
0.50854385 -1.0254245 3.0804679 4.0566077e-39
0.50854266 -0.97540134 3.0804603 4.0566077e-39
0.50854141 -0.92537856 3.0804529 4.0566077e-39
0.50854021 -0.87535614 3.0804458 4.0566077e-39
0.50853896 -0.82533365 3.0804384 4.0566077e-39
0.50853813 -0.77531224 3.0804336 4.0566077e-39
0.50853777 -0.72529155 3.080431 4.0566077e-39
0.50853735 -0.67527086 3.0804284 4.0566077e-39
0.50853699 -0.6252504 3.0804262 4.0566077e-39
0.50853658 -0.57522988 3.0804238 4.0566077e-39
0.50853622 -0.52520955 3.0804217 4.0566077e-39
0.5085358 -0.47518921 3.0804191 4.0566077e-39
0.50853544 -0.42516896 3.0804167 4.0566077e-39
0.50853503 -0.37514877 3.0804143 4.0566077e-39
0.50853467 -0.3251287 3.0804121 4.0566077e-39
0.50853425 -0.2751087 3.0804095 4.0566077e-39
0.50853384 -0.22508876 3.0804071 4.0566077e-39
0.50853342 -0.17506891 3.0804052 4.0566077e-39
0.50853306 -0.12504911 3.0804026 4.0566077e-39
0.50853264 -0.075029418 3.0804 4.0566077e-39
0.50853229 -0.025009789 3.0803981 4.0566077e-39
0.50853187 0.025009764 3.0803957 4.0566077e-39
0.50853151 0.075029239 3.0803931 4.0566077e-39
0.50853115 0.12504864 3.0803909 4.0566077e-39
0.50853074 0.17506796 3.0803883 6.8224766e-39
0.50853038 0.2250872 3.0803862 1.4290323e-38
0.50852996 0.27510637 3.080384 1.4290323e-38
-0.87652993 0.32000297 3.0845768 8.7437731e-39
-0.82645035 0.32000604 3.0846059 8.4664702e-39
-0.77636939 0.3200089 3.0846338 8.2820789e-39
-0.72628778 0.32001188 3.0846624 7.8211064e-39
-0.67620581 0.3200151 3.0846934 7.0896762e-39
-0.62612206 0.32001793 3.0847206 7.3756504e-39
-0.57603753 0.32002082 3.0847487 7.3756504e-39
-0.5259521 0.32002378 3.0847771 7.3756504e-39
-0.47586569 0.32002667 3.0848053 7.3756504e-39
-0.42577869 0.32002977 3.0848346 7.3756504e-39
-0.37569016 0.32003242 3.0848603 7.3756504e-39
-0.32560134 0.32003555 3.0848906 7.3756504e-39
-0.27551118 0.32003829 3.0849168 7.3756504e-39
-0.22542053 0.32004157 3.0849485 7.3756504e-39
-0.1753286 0.32004434 3.0849752 7.3756504e-39
-0.12523584 0.32004729 3.0850036 9.4961499e-39
-0.075142197 0.32005033 3.0850327 1.4290323e-38
-0.025047602 0.32005322 3.0850611 1.4290323e-38
0.025047921 0.32005629 3.0850904 1.4290323e-38
0.075144351 0.32005912 3.0851178 1.4290323e-38
0.1252417 0.32006204 3.0851457 1.4290323e-38
0.17534 0.32006505 3.085175 1.4290323e-38
0.22543924 0.320068 3.0852032 1.4290323e-38
0.2755394 0.32007101 3.0852323 1.4290323e-38
0.32564056 0.32007405 3.0852613 1.4290323e-38
0.37574241 0.32007685 3.0852885 1.4290323e-38
0.42584547 0.32007992 3.0853183 1.4290323e-38
0.47594929 0.32008278 3.085346 1.4290323e-38
0.50758076 0.31300193 3.0813782 1.4290323e-38
0.50868034 -1.323693 3.1153421 1.6410822e-38
0.50867909 -1.2731031 3.1153347 1.6410822e-38
0.5086779 -1.2225132 3.1153271 1.6410822e-38
0.50867665 -1.1747341 3.11532 1.3276171e-38
0.50867552 -1.1269553 3.1153126 4.0566077e-39
0.50867432 -1.0763662 3.1153054 4.0566077e-39
0.50867313 -1.0257772 3.1152976 4.0566077e-39
0.50867182 -0.97518849 3.1152899 4.0566077e-39
0.50867057 -0.92460006 3.1152823 4.0566077e-39
0.50866932 -0.87401199 3.1152747 4.0566077e-39
0.50866812 -0.82342416 3.1152678 4.0566077e-39
0.50866759 -0.77283746 3.1152639 4.0566077e-39
0.50866717 -0.72506154 3.1152618 4.0566077e-39
0.50866681 -0.67728567 3.1152596 4.0566077e-39
0.50866646 -0.62669957 3.1152573 4.0566077e-39
0.50866604 -0.57611346 3.1152546 4.0566077e-39
0.50866562 -0.52552748 3.1152523 4.0566077e-39
0.50866532 -0.47494161 3.1152501 4.0566077e-39
0.50866485 -0.42435578 3.1152472 4.0566077e-39
0.50866449 -0.37377003 3.1152449 4.0566077e-39
0.50866407 -0.32318437 3.115243 4.0566077e-39
0.50866371 -0.2725988 3.1152401 4.0566077e-39
0.50866336 -0.22482358 3.115238 4.0566077e-39
0.50866294 -0.17704844 3.1152356 4.0566077e-39
0.50866252 -0.12646307 3.1152334 4.0566077e-39
0.50866216 -0.075877778 3.115231 4.0566077e-39
0.50866181 -0.025292577 3.1152284 4.0566077e-39
0.50866139 0.025292551 3.1152258 4.0566077e-39
0.50866103 0.075877607 3.1152236 4.0566077e-39
0.50866055 0.12646256 3.1152213 4.0566077e-39
0.5086602 0.17704746 3.1152186 7.8366285e-39
0.50865984 0.22482203 3.1152167 1.4290323e-38
0.50865936 0.27259648 3.1152143 1.4290323e-38
-0.91037655 0.32047522 3.1438036 9.2983804e-39
-0.87634873 0.32047704 3.1438212 8.65086e-39
-0.82530719 0.32048011 3.1438513 8.3742745e-39
-0.7742644 0.32048306 3.1438806 8.1902434e-39
-0.72322094 0.32048616 3.1439106 7.5448824e-39
-0.67501229 0.32048902 3.143939 7.0936475e-39
-0.62680268 0.32049191 3.1439669 7.3756504e-39
-0.57575613 0.32049483 3.143996 7.3756504e-39
-0.52470899 0.32049793 3.1440265 7.3756504e-39
-0.47366053 0.32050088 3.1440554 7.3756504e-39
-0.42544752 0.32050383 3.1440842 7.3756504e-39
-0.37723339 0.32050657 3.1441109 7.3756504e-39
-0.32618228 0.32050958 3.144141 7.3756504e-39
-0.27513027 0.32051265 3.1441705 7.3756504e-39
-0.22407717 0.32051551 3.1441989 7.3756504e-39
-0.17302325 0.32051858 3.1442287 8.0210198e-39
-0.12480482 0.32052153 3.1442578 8.9429761e-39
-0.076585412 0.32052428 3.1442845 1.4290323e-38
-0.025528692 0.32052732 3.1443145 1.4290323e-38
0.025529005 0.32053033 3.1443441 1.4290323e-38
0.076587632 0.32053325 3.1443725 1.4290323e-38
0.12481059 0.3205362 3.1444018 1.4290323e-38
0.17303437 0.32053903 3.1444297 1.4290323e-38
0.22409582 0.32054207 3.1444592 1.4290323e-38
0.2751582 0.32054508 3.1444886 1.4290323e-38
0.32622162 0.32054818 3.1445191 1.4290323e-38
0.37728596 0.32055119 3.1445487 1.4290323e-38
0.42551422 0.32055402 3.1445763 1.4290323e-38
0.47374338 0.32055688 3.1446044 1.4290323e-38
0.50742316 0.31293949 3.125016 1.4290323e-38
-0.9198125 -1.3656294 3.1883371 1.0221063e-38
0.50889802 -1.3620973 3.1737566 1.6410822e-38
-0.91982651 -1.323873 3.184835 1.0221063e-38
0.50888407 -1.3251191 3.1702666 1.6410822e-38
-0.91986108 -1.2742333 3.1758749 1.0220701e-38
0.50887895 -1.275048 3.1691871 1.6410822e-38
-0.91985661 -1.2245666 3.1773818 1.02207e-38
0.5088737 -1.2250276 3.1681075 1.6410822e-38
-0.91986078 -1.1748946 3.1766393 1.02207e-38
0.5088765 -1.1749951 3.1691718 1.5857648e-38
-0.91986465 -1.125258 3.1758871 1.0128144e-38
0.50887519 -1.1235312 3.1691637 5.5317378e-39
-0.9198631 -1.0746105 3.176645 9.5760533e-39
0.508874 -1.0749269 3.1691566 3.9644121e-39
-0.91986167 -1.0239273 3.1773987 6.9967491e-39
0.50887281 -1.0263226 3.1691492 3.9644121e-39
-0.91986847 -0.97532874 3.175873 6.9967435e-39
0.50887156 -0.97485936 3.1691411 3.9644121e-39
-0.91986668 -0.9255982 3.1766572 7.4584447e-39
0.50886637 -0.92477363 3.1680617 3.9644121e-39
-0.91986811 -0.87401682 3.1766615 7.7361204e-39
0.50887305 -0.8762747 3.1701982 3.7800208e-39
-0.91987228 -0.82430166 3.1758859 8.3829332e-39
0.50886822 -0.82618999 3.1691203 3.5034339e-39
-0.91986758 -0.77567184 3.1774199 9.3891425e-39
0.50886768 -0.77472907 3.1691172 3.5034339e-39
-0.91987175 -0.72500294 3.1766744 9.2969469e-39
0.50886333 -0.72471297 3.1680427 3.5956296e-39
-0.91987556 -0.67436928 3.1759253 9.2969469e-39
0.50886703 -0.67468297 3.1691127 3.9644121e-39
-0.91987419 -0.6247164 3.1766858 9.4813353e-39
0.50887054 -0.62460274 3.170182 8.8507805e-39
-0.91987258 -0.57502753 3.1774368 9.6668042e-39
0.5088622 -0.57609934 3.1680357 8.3898023e-39
-0.91987926 -0.52538919 3.1759379 9.943747e-39
0.50886583 -0.52601916 3.1691053 8.6663892e-39
-0.91987789 -0.47570041 3.1766982 9.9433869e-39
0.50886542 -0.47455877 3.1691029 8.6663892e-39
-0.91987908 -0.42507294 3.1766994 9.7586383e-39
0.50886106 -0.42447659 3.1680284 8.3898023e-39
-0.91988301 -0.3744362 3.1759508 9.6664427e-39
0.50886869 -0.3759779 3.1701705 8.8507805e-39
-0.91987866 -0.32478231 3.177458 9.4820528e-39
0.50886422 -0.32589591 3.1690955 8.6663892e-39
-0.91988271 -0.2751002 3.1767156 9.3894985e-39
0.50886387 -0.27443588 3.1690931 8.6663892e-39
-0.91988665 -0.22545376 3.1759629 8.5626259e-39
0.50885946 -0.22442171 3.1680188 8.3898023e-39
-0.9198851 -0.17481127 3.1767209 7.1814991e-39
0.50886309 -0.1743913 3.1690884 5.3473465e-39
-0.91988367 -0.12413324 3.1774745 9.2069093e-39
0.50886667 -0.12431069 3.1701579 3.9644121e-39
-0.91989052 -0.075516969 3.1759493 9.3898558e-39
0.50885832 -0.075810276 3.1680114 3.9644121e-39
-0.91988879 -0.025791926 3.1767335 9.2047471e-39
0.50886184 -0.025729811 3.1690812 3.9644121e-39
-0.91988999 0.025791971 3.1767375 9.0199971e-39
0.50886154 0.025729783 3.1690786 3.9644121e-39
-0.91989428 0.075517274 3.1759615 8.9278028e-39
0.50885719 0.07581009 3.168004 3.9644121e-39
-0.91988969 0.12413409 3.1774957 8.8359673e-39
0.50886476 0.12431021 3.1701462 3.9644121e-39
-0.91989356 0.1748129 3.1767502 9.1132717e-39
0.50886041 0.17439038 3.1690714 7.6522373e-39
-0.91989774 0.22545648 3.1760008 9.4834891e-39
0.508856 0.22442017 3.1679969 1.4290323e-38
-0.91989619 0.27510422 3.1767619 9.483129e-39
0.50885963 0.27443355 3.1690667 1.4290323e-38
-0.9198904 0.3104555 3.1785345 9.2987392e-39
0.50886899 0.31022793 3.1716688 1.4290323e-38
-0.91966724 -1.3738642 3.2274466 1.0312898e-38
0.50908732 -1.3730812 3.2247319 1.6410822e-38
-0.91967529 -1.3256806 3.2255979 1.0313257e-38
0.50908607 -1.3236239 3.2247243 1.6410822e-38
-0.91967434 -1.2747419 3.2261949 1.0220701e-38
0.50908488 -1.2741668 3.2247167 1.6410822e-38
-0.91967547 -1.2252669 3.2261994 1.0312535e-38
0.50908369 -1.22471 3.224709 1.6410822e-38
-0.91967678 -1.1757919 3.2262037 1.0128504e-38
0.5090825 -1.1752534 3.2247014 1.6410822e-38
-0.91967583 -1.1248066 3.2268009 1.0036308e-38
0.5090813 -1.1257968 3.2246938 1.0141519e-38
-0.91968137 -1.0754404 3.2256193 9.5756946e-39
0.50907993 -1.0734315 3.2246852 4.0566077e-39
-0.91968036 -1.0244551 3.2262163 6.9049122e-39
0.50907874 -1.0239756 3.2246776 4.0566077e-39
-0.91968167 -0.97497946 3.2262208 7.2736891e-39
0.50907755 -0.97451985 3.2246699 4.0566077e-39
-0.9196828 -0.92550361 3.2262251 7.5506417e-39
0.50907636 -0.92506444 3.2246625 4.0566077e-39
-0.9196862 -0.874502 3.2256365 7.6442849e-39
0.50907516 -0.87560922 3.2246547 3.5956296e-39
-0.91968304 -0.825167 3.2268264 8.5644377e-39
0.50907457 -0.82615536 3.2246509 2.8580645e-39
-0.91968656 -0.77416497 3.2262375 9.2043925e-39
0.50907421 -0.77670175 3.2246485 2.8580645e-39
-0.91968769 -0.72468877 3.2262423 9.2040338e-39
0.50907379 -0.72433925 3.2246463 2.8580645e-39
-0.91968894 -0.6752122 3.2262468 9.2047513e-39
0.50907338 -0.67488587 3.2246437 5.8083247e-39
-0.9196924 -0.62425584 3.2256579 9.388781e-39
0.50907302 -0.62543255 3.2246411 1.6410822e-38
-0.91968924 -0.57482827 3.2268481 9.6664441e-39
0.50907266 -0.57597935 3.2246387 1.6410822e-38
-0.9196949 -0.52532047 3.2256663 9.943747e-39
0.50907224 -0.52652615 3.2246361 1.6410822e-38
-0.91969162 -0.47585627 3.2268562 9.8515514e-39
0.50907183 -0.47416407 3.2246332 1.6410822e-38
-0.91969728 -0.42638448 3.2256753 9.6664427e-39
0.50907147 -0.42471105 3.2246313 1.6410822e-38
-0.91969615 -0.37544936 3.2262721 9.574247e-39
0.50907111 -0.37525809 3.2246289 1.6410822e-38
-0.9196952 -0.3244862 3.2268691 9.3894985e-39
0.50907063 -0.32580525 3.2246263 1.6410822e-38
-0.91970104 -0.27506971 3.2256877 9.3894985e-39
0.50907028 -0.27635247 3.2246237 1.6410822e-38
-0.91969997 -0.22410631 3.2262852 8.378236e-39
0.50906986 -0.22399075 3.2246213 1.6410822e-38
-0.9197011 -0.17462853 3.2262893 7.1814991e-39
0.5090695 -0.17453811 3.2246192 7.467846e-39
-0.91970241 -0.12515059 3.2262938 9.2991049e-39
0.50906909 -0.12508555 3.2246165 4.0566077e-39
-0.9197036 -0.075672552 3.2262976 9.4827703e-39
0.50906873 -0.075633071 3.2246139 4.0566077e-39
-0.91970932 -0.02873878 3.2250421 9.3902159e-39
0.50906831 -0.026180662 3.224612 4.0566077e-39
-0.91974354 0.026112596 3.216228 9.2051072e-39
0.50906789 0.026180632 3.2246089 4.0566077e-39
-0.91974461 0.075436473 3.2162321 9.0203572e-39
0.50906754 0.075632885 3.2246065 4.0566077e-39
-0.91974586 0.12476049 3.2162364 8.8359673e-39
0.50906724 0.12508506 3.2246044 4.0566077e-39
-0.91974711 0.17408462 3.2162409 8.928163e-39
0.50906676 0.17453718 3.2246017 8.0210198e-39
-0.91974831 0.22340891 3.2162447 9.2061834e-39
0.50906634 0.22398919 3.2245991 1.4290323e-38
-0.91974956 0.27563474 3.2162492 9.1132703e-39
0.50906599 0.27635011 3.224597 1.4290323e-38
-0.91530252 0.31570986 3.2108097 8.7437731e-39
-0.87616032 0.32096958 3.2053862 8.5586644e-39
-0.82411885 0.32097265 3.205416 8.3739158e-39
-0.77496797 0.32097554 3.2054448 8.0976904e-39
-0.72581565 0.32097825 3.2054722 7.4530469e-39
-0.6737721 0.32098156 3.2055049 6.9132261e-39
-0.62461823 0.32098436 3.2055333 7.3756504e-39
-0.57546371 0.32098731 3.2055626 7.3756504e-39
-0.52341688 0.32099047 3.2055943 7.3756504e-39
-0.47426048 0.32099342 3.2056234 7.3756504e-39
-0.42510304 0.3209962 3.2056513 9.5883455e-39
-0.37594488 0.32099915 3.2056808 1.4290323e-38
-0.32678574 0.32100195 3.2057087 1.4290323e-38
-0.27473408 0.32100514 3.2057405 1.4290323e-38
-0.2255732 0.32100806 3.20577 1.4290323e-38
-0.17641139 0.32101095 3.2057991 1.4290323e-38
-0.12435678 0.32101408 3.2058301 1.4290323e-38
-0.075193115 0.32101691 3.2058578 1.4290323e-38
-0.026028596 0.32101977 3.2058866 1.4290323e-38
0.026028924 0.32102293 3.2059178 1.4290323e-38
0.07519529 0.32102591 3.2059479 1.4290323e-38
0.12436251 0.32102871 3.205976 1.4290323e-38
0.17642298 0.32103193 3.206008 1.4290323e-38
0.22559199 0.3210347 3.2060359 1.4290323e-38
0.27476195 0.32103759 3.2060649 1.4290323e-38
0.32682535 0.32104078 3.2060966 1.4290323e-38
0.37599716 0.32104367 3.2061253 1.4290323e-38
0.4251698 0.32104656 3.2061539 1.4290323e-38
0.47434324 0.32104933 3.2061818 1.4290323e-38
0.50674713 0.31517488 3.217237 1.4290323e-38
0.50922984 -1.4070048 3.2629251 1.6410822e-38
0.509229 -1.3746239 3.2629199 1.6410822e-38
0.50922775 -1.3245809 3.2629118 1.6410822e-38
0.50922656 -1.2745383 3.2629044 1.6410822e-38
0.50922537 -1.2244956 3.2628965 1.6410822e-38
0.50922412 -1.1744533 3.2628884 1.6410822e-38
0.50922292 -1.1244112 3.2628803 1.3276171e-38
0.50922161 -1.0743694 3.2628729 4.0566077e-39
0.50922048 -1.0243279 3.2628651 4.0566077e-39
0.50921917 -0.97428638 3.2628567 4.0566077e-39
0.50921804 -0.92424542 3.2628491 4.0566077e-39
0.50921696 -0.87420475 3.2628429 3.8722165e-39
0.50921649 -0.82416546 3.2628396 2.8580645e-39
0.50921607 -0.77412623 3.2628372 2.8580645e-39
0.50921571 -0.72408712 3.2628348 2.8580645e-39
0.50921535 -0.67404807 3.2628319 8.4819979e-39
0.50921488 -0.62400907 3.2628295 1.6410822e-38
0.50921452 -0.57397008 3.2628272 1.6410822e-38
0.50921416 -0.52393126 3.2628245 1.6410822e-38
0.50921375 -0.47389257 3.2628222 1.6410822e-38
