# .PCD v0.7 - Point Cloud Data file format
VERSION 0.7
FIELDS x y z rgb
SIZE 4 4 4 4
TYPE F F F F
COUNT 1 1 1 1
WIDTH 1041
HEIGHT 1
VIEWPOINT 0 0 0 1 0 0 0
POINTS 1041
DATA ascii
-0.67558807 0.3103753 1.8695662 1.4290323e-38
-0.62580866 0.31037396 1.8699087 1.4290323e-38
-0.59173644 0.3103539 1.8677552 1.3828983e-38
0.47533721 0.30958241 1.8697188 7.3745672e-39
0.52443069 0.31027588 1.8693173 7.3756504e-39
0.57501262 0.31027156 1.8692911 7.3756504e-39
0.62559295 0.31026706 1.8692644 7.3756504e-39
0.67533666 0.31025991 1.8688705 7.3756504e-39
0.72505462 0.31025866 1.8692138 7.3756504e-39
0.77563089 0.31025428 1.8691876 7.3756504e-39
0.82538503 0.31025305 1.8695301 7.3756504e-39
0.87422884 0.31024292 1.8687689 7.3756504e-39
0.92398012 0.31024164 1.8691109 7.3756504e-39
0.97455156 0.31023741 1.8690858 7.3756504e-39
1.0251209 0.310233 1.8690593 9.8649324e-39
1.0653733 0.31024468 1.8709217 1.4290323e-38
0.46963745 -0.66893226 1.9210237 7.5546158e-39
0.46918717 -0.62501073 1.9191819 8.3850982e-39
0.46866584 -0.57416326 1.91705 8.384738e-39
0.46816367 -0.52517682 1.9149954 8.2918221e-39
0.46764466 -0.47455209 1.9128724 8.1989062e-39
0.46712679 -0.42403814 1.9107541 8.1985419e-39
0.46662781 -0.37537283 1.9087133 8.0137891e-39
0.46611223 -0.32507947 1.9066045 7.8286762e-39
0.46559781 -0.27489594 1.9044999 7.7357589e-39
0.46508443 -0.22482426 1.9024004 7.458809e-39
0.46466032 -0.18346541 1.9006655 7.2740577e-39
0.48019183 0.045732487 1.9498065 7.0892993e-39
0.47989145 0.073824994 1.9485867 6.9049094e-39
0.47934788 0.12466045 1.9463798 6.8123536e-39
0.47880557 0.17538218 1.9441777 6.7201594e-39
0.47828314 0.22424553 1.9420563 6.7205181e-39
0.47774318 0.27474102 1.9398638 6.8130753e-39
-1.1105144 0.31098229 1.9410833 7.3756504e-39
-1.074958 0.31085238 1.9252083 7.3756504e-39
-1.0251529 0.31084418 1.9246627 7.3756504e-39
-0.97536159 0.3108483 1.925689 7.3756504e-39
-0.92500299 0.31083563 1.9246171 7.3756504e-39
-0.87519658 0.31083545 1.9251071 7.3756504e-39
-0.82539791 0.31082714 1.9245648 7.8366285e-39
-0.77446228 0.31082696 1.925058 1.3829344e-38
-0.72466934 0.31082255 1.925028 1.4290323e-38
-0.67488861 0.31081429 1.9244846 1.4290323e-38
-0.62613541 0.31080502 1.9238393 1.4105931e-38
-0.59723592 0.3106313 1.9024184 1.3275086e-38
0.48496479 0.31014332 1.9216622 7.3749259e-39
0.52481014 0.31071994 1.9248941 7.3756504e-39
0.57511479 0.31070724 1.9238228 7.3756504e-39
0.6248861 0.31070715 1.9243129 7.3756504e-39
0.67463779 0.31069887 1.9237705 7.3756504e-39
0.72553742 0.31069866 1.9242638 7.3756504e-39
0.77528924 0.31069437 1.9242332 7.3756504e-39
0.8250227 0.31068599 1.9236912 7.3756504e-39
0.87477541 0.31068593 1.9241809 7.3756504e-39
0.92453218 0.3106775 1.9236386 7.3756504e-39
0.97483826 0.31068149 1.9246553 7.3756504e-39
1.0245744 0.31066874 1.9235765 7.6522373e-39
1.0743226 0.31066883 1.9240708 1.3829344e-38
1.1098363 0.31079233 1.9398979 1.4290323e-38
0.48780331 -0.66827506 1.9807127 7.2769485e-39
0.48734039 -0.62480003 1.978833 8.1070707e-39
0.48680136 -0.57418054 1.9766443 8.1989062e-39
0.48626354 -0.523673 1.9744604 8.1063491e-39
0.48574597 -0.47507417 1.9723589 8.014152e-39
0.48522967 -0.42658004 1.9702623 8.0134304e-39
0.48469523 -0.37639788 1.9680923 7.9208732e-39
0.48416203 -0.32632622 1.9659277 7.736119e-39
0.48363003 -0.27636454 1.9637672 7.6435618e-39
0.48309916 -0.22651254 1.9616116 7.3666134e-39
0.48255062 -0.17499603 1.9593842 7.1818606e-39
0.48200232 -0.12359484 1.9571579 7.1814991e-39
0.48147291 -0.074077249 1.9550081 7.0893021e-39
0.48094454 -0.02466831 1.9528627 7.0889419e-39
0.48045501 0.021115622 1.9508752 7.0892993e-39
-1.150274 0.31142005 1.9954454 7.3756504e-39
-1.1221172 0.31132981 1.9844211 7.3756504e-39
-1.0753038 0.31131774 1.9833945 7.3756504e-39
-1.0251904 0.31131333 1.9833664 7.3756504e-39
-0.97507817 0.31130892 1.9833384 7.3756504e-39
-0.9249683 0.31130463 1.9833114 7.3756504e-39
-0.87485921 0.31130031 1.9832834 7.3756504e-39
-0.82475191 0.31129614 1.9832565 7.3756504e-39
-0.7746461 0.31129184 1.9832295 1.1893236e-38
-0.72454137 0.31128755 1.9832022 1.4290323e-38
-0.67535216 0.31127968 1.9827298 1.4290323e-38
-0.63486522 0.31126919 1.9818186 1.4013376e-38
0.49499127 0.31115082 1.9785329 7.4671229e-39
0.52578437 0.31118056 1.9825208 7.3756504e-39
0.57585305 0.31117624 1.9824933 7.3756504e-39
0.62592059 0.31117186 1.982465 7.3756504e-39
0.67598647 0.31116748 1.9824377 7.3756504e-39
0.72515464 0.31115982 1.9819664 7.3756504e-39
0.77431595 0.31115919 1.9823846 7.3756504e-39
0.82437766 0.31115481 1.9823569 7.3756504e-39
0.87443817 0.31115055 1.9823295 7.3756504e-39
0.92449743 0.31114626 1.9823017 7.3756504e-39
0.97455537 0.31114197 1.9822752 7.3756504e-39
1.0246121 0.31113786 1.9822485 7.3756504e-39
1.074667 0.31113335 1.9822199 1.2077628e-38
1.1225487 0.31114084 1.9836345 1.4290323e-38
0.50713432 -0.66757578 2.04423 7.0921957e-39
0.50665832 -0.62457573 2.042311 8.0137919e-39
0.50612128 -0.5760622 2.0401459 8.0137919e-39
0.50556469 -0.52579224 2.0379026 7.8294006e-39
0.50500935 -0.47563124 2.0356641 7.8290405e-39
0.50445527 -0.42558166 2.0334306 7.7368421e-39
0.50390238 -0.37564051 2.0312021 7.6439262e-39
0.50335073 -0.32581005 2.0289783 7.5513676e-39
0.5027799 -0.27424839 2.0266774 7.3666148e-39
0.5022307 -0.22463822 2.0244634 7.2744164e-39
0.50168264 -0.17513765 2.0222545 7.1818592e-39
0.50111562 -0.123917 2.0199683 6.9971078e-39
0.50056845 -0.074634343 2.0177631 6.9045521e-39
0.49986008 -0.010906895 2.0149076 6.9041919e-39
0.50014317 -0.036375593 2.0160489 6.8123564e-39
0.49945623 0.025422093 2.0132797 6.9049108e-39
0.49889186 0.076189637 2.0110049 6.8127138e-39
0.49834892 0.12503619 2.0088162 6.7201594e-39
0.49780712 0.1737752 2.0066323 6.7197993e-39
0.4972465 0.22420824 2.0043724 6.7201594e-39
0.49668714 0.27452782 2.0021176 6.7208797e-39
-1.1637305 0.31175259 2.0368872 7.3756504e-39
-1.125839 0.31171563 2.0326607 7.3756504e-39
-1.0753936 0.31170747 2.0321646 7.3756504e-39
-1.0249689 0.31170684 2.0326035 7.3756504e-39
-0.97451049 0.31170616 2.033042 7.3756504e-39
-0.92502946 0.3116945 2.0320799 7.3756504e-39
-0.87457436 0.31169394 2.0325189 7.3756504e-39
-0.82505697 0.3116897 2.0324919 7.3756504e-39
-0.77554083 0.31168538 2.0324636 9.6805411e-39
-0.7251181 0.31167737 2.0319684 1.4290323e-38
-0.67469054 0.31167677 2.0324073 1.4290323e-38
-0.64115626 0.31164867 2.0292349 1.3736786e-38
0.49634805 0.30502826 2.0007508 7.3676966e-39
0.52773005 0.31156525 2.0306845 7.375649e-39
0.57548535 0.31156951 2.0317078 7.3756504e-39
0.62496334 0.31156528 2.0316806 7.3756504e-39
0.67443961 0.31156093 2.031652 7.3756504e-39
0.72482836 0.31155285 2.0311568 7.3756504e-39
0.77520984 0.31155244 2.0315964 7.3756504e-39
0.82468224 0.3115482 2.0315688 7.3756504e-39
0.87415361 0.31154403 2.0315418 7.3756504e-39
0.92545515 0.31153947 2.031512 7.3756504e-39
0.9758473 0.31153142 2.0310171 7.3756504e-39
1.0252992 0.31153476 2.031924 7.3756504e-39
1.0747571 0.31152299 2.0309618 9.8649324e-39
1.1251414 0.31152245 2.0314012 1.4290323e-38
1.1629841 0.31155267 2.0355814 1.4290323e-38
0.52473426 -0.40539041 2.0999017 7.6439234e-39
0.52438223 -0.37483427 2.0984933 7.5513676e-39
0.52378911 -0.32335439 2.0961196 7.4588104e-39
0.52321923 -0.27389175 2.0938392 7.3662533e-39
0.5226506 -0.2245366 2.0915637 7.2740563e-39
0.52208322 -0.17528868 2.089293 7.1815005e-39
0.52151704 -0.12614751 2.0870273 6.9967491e-39
0.52093029 -0.075229689 2.0846789 6.8123578e-39
0.52034301 -0.024424823 2.0823288 6.8119977e-39
0.51977825 0.024389543 2.0800688 6.9045507e-39
0.51919323 0.074968658 2.0777276 6.812355e-39
0.51860934 0.12543544 2.0753911 6.7201594e-39
0.51802689 0.17578745 2.07306 6.6279638e-39
0.51744568 0.22602791 2.0707343 6.4435739e-39
0.51688725 0.27430046 2.0684996 6.4435767e-39
-1.2054464 0.31224278 2.0977213 7.3756504e-39
-1.1743009 0.31213796 2.0849667 7.3756504e-39
-1.1253382 0.31212556 2.0839162 7.3756504e-39
-1.0745839 0.3121289 2.0848691 7.3756504e-39
-1.0247252 0.31212071 2.0843492 7.3756504e-39
-0.97490287 0.31211239 2.0838289 7.3756504e-39
-0.92505455 0.31211203 2.0842912 7.3756504e-39
-0.87518913 0.31210378 2.083771 7.3756504e-39
-0.82446337 0.31210721 2.0847242 7.3756504e-39
-0.77460039 0.31209871 2.0842025 7.7444329e-39
-0.72477478 0.31209055 2.083683 1.4013736e-38
-0.67583102 0.31208602 2.0836155 1.4197767e-38
-0.64825016 0.31198207 2.0708685 1.225985e-38
0.53122765 0.31060213 2.078331 7.2816485e-39
0.57509911 0.31198296 2.0834296 7.3756504e-39
0.62583661 0.31197849 2.0833998 7.3756504e-39
0.67469347 0.31197441 2.0833724 7.3756504e-39
0.7244857 0.31196612 2.0828519 7.3756504e-39
0.77427042 0.31196588 2.0833154 7.3756504e-39
0.82500207 0.31196144 2.083286 7.3756504e-39
0.87573248 0.31195703 2.083256 7.3756504e-39
0.9245829 0.31195295 2.0832288 7.3756504e-39
0.974379 0.31194463 2.0827091 7.3756504e-39
1.0250894 0.31194818 2.083662 7.3756504e-39
1.0758063 0.31193599 2.0826511 7.8366285e-39
1.1255944 0.31193569 2.0831137 1.4105931e-38
1.1735402 0.31193578 2.0836163 1.4290323e-38
1.2046431 0.3120347 2.0963237 1.4290323e-38
0.52776855 -0.66876304 2.1120448 6.8148886e-39
0.52727896 -0.62626719 2.1100855 7.7368435e-39
0.52670151 -0.57614362 2.1077745 7.7372022e-39
0.52612525 -0.52612978 2.105469 7.7364819e-39
0.52555037 -0.47622517 2.1031678 7.7361218e-39
0.52502072 -0.43025482 2.1010485 7.6439248e-39
0.5408411 0.077535965 2.148844 6.9049094e-39
0.54025882 0.12586206 2.1465304 6.8127138e-39
0.53965437 0.17601165 2.144129 6.6283239e-39
0.53905135 0.22604917 2.1417329 6.4435739e-39
0.5384497 0.27597496 2.1393423 6.3506636e-39
-1.213421 0.31246069 2.1249423 7.3756504e-39
-1.1750705 0.31245756 2.1249211 7.3756504e-39
-1.1252141 0.31245294 2.1248899 7.3756504e-39
-1.0753601 0.31244865 2.1248605 7.3756504e-39
-1.0255075 0.31244427 2.124831 7.3756504e-39
-0.97565627 0.31243998 2.1248019 7.3756504e-39
-0.92580628 0.31243566 2.1247721 7.3756504e-39
-0.87595725 0.31243116 2.1247413 7.3756504e-39
-0.82611054 0.31242692 2.1247127 7.3756504e-39
-0.77626485 0.3124226 2.1246831 7.3756504e-39
-0.72642046 0.31241825 2.1246538 1.2538606e-38
-0.6823284 0.31241438 2.1246276 1.4013734e-38
0.54067397 0.31018615 2.1291485 7.2798422e-39
0.57671225 0.31230605 2.1238904 7.3756504e-39
0.6265198 0.31230193 2.123863 7.3756504e-39
0.67632538 0.31229755 2.1238329 7.3756504e-39
0.72612995 0.31229335 2.1238046 7.3756504e-39
0.77593297 0.31228909 2.1237752 7.3756504e-39
0.82573444 0.31228474 2.1237459 7.3756504e-39
0.87553436 0.31228036 2.1237159 7.3756504e-39
0.92533392 0.31227624 2.123688 7.3756504e-39
0.97513115 0.31227192 2.1236587 7.3756504e-39
1.0249274 0.31226763 2.1236291 7.3756504e-39
1.0747224 0.31226337 2.1236002 7.3756504e-39
1.1245159 0.31225914 2.1235716 1.2907388e-38
1.1743077 0.31225473 2.1235418 1.4290323e-38
1.2126094 0.31225172 2.1235211 1.4290323e-38
0.54979473 -0.66803247 2.184418 6.5383003e-39
0.54926723 -0.62408262 2.1823225 7.5520893e-39
0.54866904 -0.57423836 2.1799452 7.5520893e-39
0.54807216 -0.52450395 2.1775739 7.4595335e-39
0.54747641 -0.47487614 2.1752071 7.5513676e-39
0.54688221 -0.42535755 2.1728458 7.5513662e-39
0.54626542 -0.37397146 2.1703954 7.4591692e-39
0.54567373 -0.32467017 2.1680446 7.3666134e-39
0.54508328 -0.2754769 2.1656988 7.274415e-39
0.54447061 -0.22442809 2.1632643 7.1818606e-39
0.54385924 -0.17349386 2.1608357 7.0893049e-39
0.54327273 -0.12462571 2.1585052 6.9971078e-39
0.54268754 -0.075864241 2.1561801 6.9045521e-39
0.54207981 -0.025262894 2.1537652 6.9045507e-39
0.54147154 0.025225163 2.1513486 6.9967463e-39
0.54114449 0.05236882 2.1500492 6.997105e-39
-1.2556056 0.31291735 2.1815839 7.3756504e-39
-1.2240266 0.3128092 2.1684179 7.3756504e-39
-1.1749345 0.31279534 2.1671932 7.3756504e-39
-1.1240871 0.31279087 2.1671622 7.3756504e-39
-1.0742153 0.31278205 2.166559 7.3756504e-39
-1.0243654 0.31278226 2.1671023 7.3756504e-39
-0.97447759 0.31278238 2.1676452 7.3756504e-39
-0.92563599 0.31276894 2.1664686 7.3756504e-39
-0.8757512 0.31276914 2.1670122 7.3756504e-39
-0.82491231 0.31276476 2.1669812 7.3756504e-39
-0.77504921 0.31275573 2.1663771 7.3756504e-39
-0.72520727 0.31275606 2.1669211 1.097128e-38
-0.68763834 0.3127335 2.1645079 1.3921179e-38
0.54741585 0.31253171 2.1518283 7.3756504e-39
0.57643485 0.3126438 2.1661432 7.3756504e-39
0.62527937 0.31263971 2.1661146 7.3756504e-39
0.67412227 0.31263548 2.1660864 7.3756504e-39
0.72491735 0.3126311 2.1660552 7.3756504e-39
0.7747184 0.31262225 2.1654525 7.3756504e-39
0.82453692 0.31262249 2.1659951 7.3756504e-39
0.875328 0.31261811 2.1659653 7.3756504e-39
0.92611796 0.3126139 2.1659358 7.3756504e-39
0.97593796 0.31260493 2.1653323 7.3756504e-39
1.0247537 0.31260982 2.1664493 7.3756504e-39
1.0745715 0.31260094 2.1658463 7.3756504e-39
1.1243489 0.31259224 2.1652448 1.1247867e-38
1.1741723 0.31259251 2.1657879 1.4290323e-38
1.2231988 0.3125976 2.1669517 1.4290323e-38
1.2547354 0.31270051 2.1800718 1.4290323e-38
0.57021362 -0.41396394 2.2494202 7.458809e-39
0.56972706 -0.37509233 2.2475009 7.3666134e-39
0.56908798 -0.32404017 2.2449801 7.2744164e-39
0.5684759 -0.27513856 2.2425654 7.1818606e-39
0.56786507 -0.22634198 2.2401559 6.9971092e-39
0.56723028 -0.17562439 2.2376516 6.9045549e-39
0.56659681 -0.12501854 2.2351525 6.9049122e-39
0.56596482 -0.074527092 2.2326593 6.9971064e-39
0.5653342 -0.024146659 2.2301714 6.997105e-39
0.56472951 0.024112284 2.2277863 6.9974638e-39
0.56409919 0.074271381 2.2252996 6.9052695e-39
0.56347007 0.1243201 2.2228184 6.8130739e-39
0.56284255 0.17425585 2.2203424 6.6283253e-39
0.56219125 0.22607192 2.2177732 6.4435753e-39
0.56156653 0.27578285 2.2153084 6.3510224e-39
-1.2682049 0.31330144 2.2295349 7.3756504e-39
-1.2249676 0.31327063 2.226145 7.3756504e-39
-1.1747454 0.31326634 2.226114 7.3756504e-39
-1.1245245 0.31326193 2.2260826 7.3756504e-39
-1.075305 0.31325281 2.2254469 7.3756504e-39
-1.0250957 0.31325808 2.2266264 7.3756504e-39
-0.97489744 0.31324399 2.2253842 7.3756504e-39
-0.92567712 0.31324449 2.2259595 7.3756504e-39
-0.87546325 0.31324017 2.2259278 7.3756504e-39
-0.82525069 0.31323567 2.2258961 7.3756504e-39
-0.77503955 0.31323126 2.2258649 7.3756504e-39
-0.72482997 0.31322697 2.2258341 8.3898023e-39
-0.69600695 0.31310341 2.2106884 1.3552035e-38
0.57766014 0.3119629 2.2210844 7.2816485e-39
0.62421376 0.31311053 2.2250068 7.3756504e-39
0.67539811 0.31310114 2.22437 7.3756504e-39
0.72554702 0.3131066 2.2255492 7.3756504e-39
0.77570844 0.31309265 2.2243092 7.3756504e-39
0.82487506 0.3130931 2.2248833 7.3756504e-39
0.87504041 0.31308889 2.2248533 7.3756504e-39
0.92520446 0.31308457 2.2248223 7.3756504e-39
0.97437286 0.31307545 2.2241869 7.3756504e-39
1.0245154 0.31308079 2.2253661 7.3756504e-39
1.0746664 0.31306678 2.2241251 7.3756504e-39
1.1248609 0.31307217 2.2253051 8.7585848e-39
1.1749545 0.3130582 2.2240639 1.4290323e-38
1.2251632 0.31305388 2.2240341 1.4290323e-38
1.2683496 0.31309059 2.2290592 1.4290323e-38
0.57338405 -0.66725004 2.2619274 6.2617134e-39
0.57284027 -0.62380916 2.2597821 7.366975e-39
0.57222009 -0.57426077 2.2573357 7.366975e-39
0.57160121 -0.52481967 2.2548943 7.3666148e-39
0.57098371 -0.47548544 2.2524581 7.3666148e-39
0.57052135 -0.43855128 2.2506344 7.3669735e-39
0.58695352 0.23229052 2.2990935 6.351021e-39
0.58641243 0.27351645 2.2969739 6.2588267e-39
-1.3058385 0.31364721 2.272424 7.3756504e-39
-1.2750785 0.31364468 2.2724059 7.3756504e-39
-1.2258619 0.31364027 2.2723737 7.3756504e-39
-1.1766474 0.31363598 2.2723424 7.3756504e-39
-1.1253839 0.31363153 2.2723105 7.3756504e-39
-1.0741214 0.313627 2.2722778 7.3756504e-39
-1.024911 0.31362271 2.2722466 7.3756504e-39
-0.97570205 0.31361848 2.2722158 7.3756504e-39
-0.92649454 0.31361428 2.2721856 7.3756504e-39
-0.875238 0.31360981 2.2721531 7.3756504e-39
-0.82398266 0.31360528 2.2721202 7.3756504e-39
-0.77477908 0.31360105 2.2720895 7.3756504e-39
-0.7296766 0.31359693 2.2720599 7.2834534e-39
0.58712226 0.31035638 2.2819202 7.1869249e-39
0.6249103 0.3134796 2.2712097 7.3756504e-39
0.67612284 0.31347516 2.2711775 7.3756504e-39
0.72528571 0.31347096 2.2711473 7.3756504e-39
0.77444696 0.31346664 2.271116 7.3756504e-39
0.82360715 0.31346247 2.2710855 7.3756504e-39
0.87481445 0.31345811 2.2710538 7.3756504e-39
0.92601973 0.31345361 2.2710214 7.3756504e-39
0.97517562 0.31344932 2.2709899 7.3756504e-39
1.0243305 0.31344518 2.2709601 7.3756504e-39
1.0734836 0.31344089 2.2709291 7.3756504e-39
1.124684 0.31343651 2.2708979 7.3756504e-39
1.1758821 0.31343207 2.2708647 1.3737149e-38
1.2250315 0.31342784 2.2708347 1.4290323e-38
1.2741798 0.31342366 2.2708046 1.4290323e-38
1.3048962 0.31342092 2.2707844 1.4290323e-38
0.598737 -0.66855645 2.3452494 5.9854866e-39
0.5981763 -0.62565911 2.3430531 7.2744164e-39
0.59750479 -0.57428497 2.3404229 7.2744164e-39
0.59686279 -0.52515882 2.3379078 7.1822208e-39
0.59622198 -0.47613963 2.3353984 7.1822208e-39
0.59555489 -0.42510042 2.3327854 7.2740563e-39
0.59488928 -0.37417534 2.330178 7.274415e-39
0.59422517 -0.32336399 2.3275766 7.2740548e-39
0.5935902 -0.2747753 2.3250895 7.0896636e-39
0.59295648 -0.22629191 2.322607 6.9967491e-39
0.59229666 -0.17580999 2.3200228 6.9045535e-39
0.59163827 -0.12544028 2.3174438 6.9049122e-39
0.59098142 -0.075182453 2.3148708 6.9971064e-39
0.59032595 -0.025036084 2.3123035 6.9974652e-39
0.58967203 0.024999177 2.3097417 6.9974638e-39
0.58901864 0.074923575 2.3071826 6.9049094e-39
0.58836502 0.12473712 2.3046224 6.7208783e-39
0.58771271 0.17444019 2.302067 6.5361297e-39
0.58727854 0.20751844 2.3003666 6.4435753e-39
-1.3211064 0.31407046 2.3251815 7.3756504e-39
-1.2749548 0.31403163 2.3208234 7.3756504e-39
-1.225777 0.31402177 2.3200769 7.3756504e-39
-1.1765361 0.31402311 2.3207603 7.3756504e-39
-1.126274 0.31401864 2.3207266 7.3756504e-39
-1.0760136 0.31401423 2.3206944 7.3756504e-39
-1.0257546 0.31400979 2.3206615 7.3756504e-39
-0.97549683 0.31400532 2.3206289 7.3756504e-39
-0.92423224 0.31399566 2.3199379 7.3756504e-39
-0.87391943 0.31399077 2.3198488 7.3756504e-39
-0.82476211 0.31399217 2.3205311 7.3756504e-39
-0.77451009 0.3139877 2.3204987 7.3756504e-39
-0.73631543 0.31396252 2.317734 7.2830932e-39
0.59423244 0.31373811 2.3031898 7.3756504e-39
0.62354791 0.31386653 2.319603 7.3756504e-39
0.6737597 0.3138622 2.3195708 7.3756504e-39
0.72397 0.31385788 2.3195388 7.3756504e-39
0.77520716 0.3138482 2.3188491 7.3756504e-39
0.82646346 0.313849 2.3194733 7.3756504e-39
0.8766697 0.31384471 2.3194416 7.3756504e-39
0.92585397 0.31383467 2.3186948 7.3756504e-39
0.97497112 0.31383619 2.3193786 7.3756504e-39
1.0251731 0.31383184 2.3193467 7.3756504e-39
1.0753739 0.3138276 2.3193152 7.3756504e-39
1.1255727 0.31382313 2.3192821 7.3756504e-39
1.1757709 0.31381881 2.3192503 1.1893236e-38
1.2259675 0.31381452 2.3192186 1.4290323e-38
1.2751259 0.3138046 2.3184729 1.4290323e-38
1.3201411 0.3138409 2.323482 1.4290323e-38
0.61696249 -0.0064946185 2.3996794 6.9974652e-39
0.61651903 0.025953757 2.3979552 6.9052695e-39
0.61584026 0.075625367 2.3953149 6.8127138e-39
0.61516219 0.12518595 2.3926771 6.6283239e-39
0.61448359 0.17463857 2.3900378 6.4435753e-39
0.61380655 0.22398061 2.3874044 6.3510196e-39
0.61310166 0.27535301 2.3846629 6.2588267e-39
-1.3604407 0.3144415 2.3711658 7.3756504e-39
-1.3262037 0.31443861 2.3711438 7.3756504e-39
-1.2748471 0.31443372 2.3711071 7.3756504e-39
-1.2256342 0.3144297 2.3710766 7.3756504e-39
-1.1764213 0.31442532 2.3710434 7.3756504e-39
-1.1250696 0.31442061 2.3710077 7.3756504e-39
-1.0737213 0.31441638 2.3709762 7.3756504e-39
-1.0245117 0.31441167 2.3709409 7.3756504e-39
-0.97530538 0.31440765 2.3709102 7.3756504e-39
-0.92396051 0.31440321 2.370877 7.3756504e-39
-0.87475544 0.31439865 2.3708422 7.3756504e-39
-0.82555312 0.31439453 2.3708119 7.3756504e-39
-0.77421147 0.31438971 2.370775 7.3756504e-39
-0.74426436 0.31438753 2.3707585 7.1901745e-39
0.62487227 0.31268412 2.3728776 7.2812855e-39
0.67556006 0.31426373 2.3698251 7.3756504e-39
0.7247209 0.3142595 2.3697934 7.3756504e-39
0.77387995 0.31425515 2.36976 7.3756504e-39
0.82517576 0.31425089 2.3697283 7.3756504e-39
0.87646955 0.31424642 2.3696947 7.3756504e-39
0.92562479 0.31424209 2.369662 7.3756504e-39
0.97477865 0.31423783 2.3696301 7.3756504e-39
1.0260683 0.31423339 2.3695967 7.3756504e-39
1.0752195 0.31422922 2.3695648 7.3756504e-39
1.1243691 0.31422484 2.3695319 7.3756504e-39
1.1756551 0.31422058 2.3694994 9.8649324e-39
1.2248019 0.31421617 2.3694665 1.4290323e-38
1.2739474 0.31421188 2.3694341 1.4290323e-38
1.325229 0.31420758 2.3694017 1.4290323e-38
1.3594161 0.31420469 2.3693798 1.4290323e-38
0.62599874 -0.66773427 2.4348264 5.8929295e-39
0.62542057 -0.62542486 2.4325774 6.9978281e-39
0.6247524 -0.57653016 2.4299786 7.182218e-39
0.62405539 -0.52552539 2.4272673 7.1822194e-39
0.62335992 -0.47463265 2.4245622 7.1818592e-39
0.62269616 -0.42605945 2.4219806 7.0896636e-39
0.62200373 -0.3753897 2.4192874 7.0896636e-39
0.62131274 -0.32483086 2.4166 6.997468e-39
0.62062341 -0.27438587 2.4139187 6.9049136e-39
0.61993557 -0.22405109 2.4112437 6.9049122e-39
0.61927897 -0.17600979 2.4086897 6.9049122e-39
0.61859417 -0.12589431 2.4060261 6.9049108e-39
0.6179108 -0.075887941 2.403368 6.9052709e-39
0.61731774 -0.032493182 2.4010615 6.9974652e-39
-1.4054322 0.31501067 2.4419041 7.3756504e-39
-1.3724364 0.3148849 2.4265072 7.3756504e-39
-1.3239404 0.31485391 2.4231319 7.3756504e-39
-1.2747294 0.31485575 2.4238787 7.3756504e-39
-1.2244201 0.31485125 2.4238441 7.3756504e-39
-1.1741122 0.31484693 2.42381 7.3756504e-39
-1.124878 0.31483626 2.4229968 7.3756504e-39
-1.0746155 0.31484443 2.4245229 7.3756504e-39
-1.0243019 0.31482741 2.4229286 7.3756504e-39
-0.97509825 0.31482938 2.4236758 7.3756504e-39
-0.9247973 0.31482491 2.423641 7.3756504e-39
-0.87449801 0.31482056 2.4236078 7.3756504e-39
-0.82527357 0.31481004 2.4227946 7.3756504e-39
-0.77795172 0.3147977 2.4217482 7.2834534e-39
0.63771176 0.31466439 2.4196014 7.3756504e-39
0.67526412 0.31468508 2.4225645 7.3756504e-39
0.72442281 0.31467465 2.4217527 7.3756504e-39
0.77468348 0.31468275 2.4232781 7.3756504e-39
0.82489586 0.31466594 2.4216855 7.3756504e-39
0.87407392 0.31466794 2.4224322 7.3756504e-39
0.92432302 0.31466362 2.4223988 7.3756504e-39
0.97567403 0.31465289 2.4215853 7.3756504e-39
1.0248011 0.31465483 2.4223316 7.3756504e-39
1.0750464 0.31465057 2.4222984 7.3756504e-39
1.1252902 0.31464615 2.4222651 7.3756504e-39
1.1755322 0.31464177 2.422231 7.8366285e-39
1.2257732 0.31463742 2.4221978 1.4013736e-38
1.27493 0.31462699 2.4213853 1.4290323e-38
1.3251499 0.31463507 2.4229109 1.4290323e-38
1.3724953 0.31463903 2.423892 1.4290323e-38
1.4043372 0.31476524 2.4400015 1.4290323e-38
0.64691639 -0.072133765 2.498651 6.8130753e-39
0.64623874 -0.024773227 2.4960337 6.9052695e-39
0.64553034 0.024737101 2.4932978 6.8134326e-39
0.64482349 0.074138992 2.4905674 6.7205195e-39
0.64411813 0.12343281 2.4878435 6.5361283e-39
0.64338177 0.17485102 2.4849987 6.3513797e-39
0.64264482 0.22615276 2.4821527 6.2588253e-39
0.64194143 0.27511331 2.4794357 6.1669898e-39
-1.415527 0.31530693 2.4788704 7.3756504e-39
-1.3752595 0.31530344 2.4788427 7.3756504e-39
-1.326045 0.31529903 2.4788084 7.3756504e-39
-1.2768321 0.31529477 2.4787748 7.3756504e-39
-1.2253832 0.31529021 2.4787385 7.3756504e-39
-1.173936 0.31528565 2.478703 7.3756504e-39
-1.124727 0.3152813 2.4786685 7.3756504e-39
-1.0755194 0.31527701 2.4786348 7.3756504e-39
-1.0263134 0.31527272 2.478601 7.3756504e-39
-0.97487158 0.31526807 2.4785645 7.3756504e-39
-0.92343175 0.31526363 2.4785299 7.3756504e-39
-0.87422961 0.31525928 2.4784956 7.3756504e-39
-0.82502902 0.31525502 2.4784615 7.3756504e-39
-0.78701144 0.31525168 2.4784362 7.2830932e-39
0.64234942 0.30977556 2.4775589 6.9074457e-39
0.67494553 0.31512362 2.4774289 7.3756504e-39
0.72633845 0.31511915 2.4773939 7.3756504e-39
0.77549559 0.31511497 2.477361 7.3756504e-39
0.82465136 0.31511074 2.4773276 7.3756504e-39
0.87380522 0.31510624 2.4772925 7.3756504e-39
0.92519265 0.31510189 2.477258 7.3756504e-39
0.97657877 0.31509751 2.4772239 7.3756504e-39
1.0257295 0.3150934 2.4771912 7.3756504e-39
1.074878 0.31508899 2.4771569 7.3756504e-39
1.124025 0.31508458 2.4771218 7.3756504e-39
1.1754056 0.31508023 2.4770877 7.3756504e-39
1.2267841 0.3150757 2.4770527 1.2262019e-38
1.275928 0.31507155 2.4770198 1.4290323e-38
1.3250703 0.31506732 2.4769862 1.4290323e-38
1.3742112 0.31506306 2.476953 1.4290323e-38
1.4144157 0.31505945 2.4769247 1.4290323e-38
0.65542579 -0.66684675 2.5315177 5.8003737e-39
0.65482944 -0.62517196 2.5292146 6.8130767e-39
0.65413517 -0.57664639 2.5265331 6.997468e-39
-1.4370744 -0.51723504 2.5245719 7.3666134e-39
0.65340936 -0.52591938 2.5237296 7.0900237e-39
-1.4369831 -0.474953 2.5245304 7.2747765e-39
0.65268517 -0.47530487 2.5209322 7.0903825e-39
-1.4369024 -0.42482615 2.5243881 7.1818606e-39
0.65196252 -0.42480248 2.5181413 6.997468e-39
-1.4369171 -0.37470731 2.5239322 7.1818606e-39
0.65124148 -0.3744117 2.5153565 6.9049122e-39
-1.4367414 -0.32459563 2.5241051 7.3662519e-39
0.65052217 -0.32413229 2.5125778 6.8127166e-39
-1.4367094 -0.27473852 2.5238042 7.459165e-39
0.64973903 -0.26940703 2.5095537 6.627968e-39
0.65009767 -0.29446942 2.5109386 6.8123578e-39
-1.4366459 -0.22514738 2.5236104 7.2740548e-39
0.64908797 -0.22390598 2.5070388 6.6279666e-39
-1.4357669 -0.17525814 2.5260913 7.1818578e-39
0.64837337 -0.17395836 2.5042784 6.6283253e-39
-1.4356203 -0.12533894 2.5261664 6.7198035e-39
0.6476602 -0.12412059 2.5015242 6.7205209e-39
-1.4355396 -0.075199232 2.5260243 6.7198035e-39
0.64727187 -0.096978009 2.5000241 6.8130753e-39
-1.4354593 -0.025065156 2.5258822 7.0896622e-39
-1.4353784 0.025063291 2.5257409 6.9052695e-39
-1.435298 0.075186111 2.5255992 6.9978239e-39
-1.4352174 0.12530328 2.5254569 6.9052681e-39
-1.4352022 0.17518884 2.5250978 6.5357695e-39
-1.4351071 0.22483113 2.5250051 6.5357695e-39
-1.4349754 0.27470234 2.5250316 5.9815224e-39
-1.4317772 0.30932304 2.5230176 6.1684416e-39
-1.3736882 0.31560767 2.5169358 7.3756504e-39
-1.3237172 0.31560323 2.5169005 7.3756504e-39
-1.2737488 0.31559908 2.5168669 7.3756504e-39
-1.2237802 0.31559449 2.5168307 7.3756504e-39
-1.1738133 0.31559005 2.5167954 7.3756504e-39
-1.1238483 0.31558567 2.5167603 7.3756504e-39
-1.0738846 0.31558132 2.5167255 7.3756504e-39
-1.0239221 0.31557685 2.51669 7.3756504e-39
-0.97396159 0.31557262 2.5166559 7.3756504e-39
-0.92400116 0.31556791 2.516619 7.3756504e-39
-0.87404329 0.31556365 2.5165846 7.3756504e-39
-0.82408673 0.31555936 2.5165501 7.3756504e-39
-0.79229623 0.31555638 2.5165269 7.2827303e-39
0.67624122 0.31542796 2.5155025 7.3756504e-39
0.72388637 0.31542385 2.51547 7.3756504e-39
0.77379858 0.31541941 2.515434 7.3756504e-39
0.82370985 0.31541508 2.5153997 7.3756504e-39
0.8736195 0.31541073 2.5153649 7.3756504e-39
0.92352825 0.31540644 2.5153313 7.3756504e-39
0.97343534 0.31540215 2.5152967 7.3756504e-39
1.0233407 0.31539771 2.5152617 7.3756504e-39
1.0732454 0.31539348 2.5152278 7.3756504e-39
1.1231481 0.31538907 2.5151923 7.5600416e-39
1.1730499 0.31538484 2.5151587 1.097128e-38
1.2229497 0.31538036 2.5151227 1.4198127e-38
1.2728488 0.31537616 2.515089 1.4290323e-38
1.3250149 0.31537172 2.5150537 1.4290323e-38
1.3771788 0.31536713 2.5150175 1.4290323e-38
1.4270735 0.31536287 2.5149834 1.4290323e-38
-1.4217554 -0.51732844 2.5748382 7.274415e-39
-1.4215559 -0.47526717 2.5751524 7.1822194e-39
-1.4215063 -0.42506444 2.5749066 7.0900237e-39
-1.4215276 -0.37511176 2.5744324 6.9974694e-39
-1.421347 -0.32515186 2.57462 7.0893035e-39
-1.4213287 -0.27496591 2.5742738 6.9049136e-39
-1.4213105 -0.22479765 2.5739257 7.1818578e-39
-1.4202189 -0.17459801 2.5770998 7.1818578e-39
-1.4201021 -0.12472488 2.5770802 6.6279666e-39
-1.4203038 -0.075703807 2.5760212 6.6279666e-39
-1.4200493 -0.025566958 2.5764487 7.0900209e-39
0.67757702 -0.018759014 2.5989637 6.6290442e-39
-1.419968 0.02556501 2.5763011 6.9056283e-39
0.67690903 0.025759844 2.5964015 6.6290428e-39
-1.4200624 0.075690493 2.5755851 6.9974638e-39
0.67617214 0.07486628 2.5935755 6.5364884e-39
-1.4197052 0.12468957 2.5763595 6.8127138e-39
0.67543703 0.12386424 2.5907555 6.3520986e-39
-1.4196634 0.17452918 2.5760913 6.5354094e-39
0.67466855 0.17508218 2.5878077 6.2591855e-39
-1.4197693 0.22487117 2.5753305 6.5357681e-39
0.67390138 0.2261835 2.5848653 6.0744369e-39
-1.41962 0.27493149 2.5754118 5.9815224e-39
0.67316842 0.27485371 2.5820539 5.9826014e-39
-1.4177778 0.30964389 2.574934 6.16808e-39
-1.3758833 0.316084 2.576488 7.3756504e-39
-1.3247304 0.31607959 2.5764515 7.3756504e-39
-1.2747707 0.31606737 2.5754499 7.3756504e-39
-1.224771 0.31607053 2.5763779 7.3756504e-39
-1.1736224 0.31606606 2.5763416 7.3756504e-39
-1.1248001 0.31606179 2.5763068 7.3756504e-39
-1.075979 0.31605747 2.5762715 7.3756504e-39
-1.0248344 0.31605297 2.5762348 7.3756504e-39
-0.97488505 0.31604087 2.5752342 7.3756504e-39
-0.92489266 0.31604421 2.5761633 7.3756504e-39
-0.87375253 0.31603971 2.5761266 7.3756504e-39
-0.82565182 0.31600976 2.572892 7.2830946e-39
0.6813423 0.31369781 2.5712407 7.1887298e-39
0.72469729 0.31589934 2.5749826 7.3756504e-39
0.77579093 0.31589496 2.5749469 7.3756504e-39
0.82576352 0.31589833 2.5758755 7.3756504e-39
0.87444794 0.31587863 2.5739124 7.3756504e-39
0.92441809 0.315882 2.5748415 7.3756504e-39
0.97550601 0.31587762 2.5748055 7.3756504e-39
1.025425 0.31586549 2.5738053 9.219563e-39
1.0753369 0.31586894 2.5747347 1.1524454e-38
1.1264201 0.31586438 2.5746977 1.3829344e-38
1.1751807 0.31586021 2.5746634 1.4290323e-38
1.2239398 0.31585598 2.5746288 1.4290323e-38
1.2750188 0.31585151 2.5745924 1.4290323e-38
1.3249283 0.3158395 2.5735936 1.4290323e-38
1.3748333 0.31584281 2.5745218 1.4290323e-38
1.4259089 0.31583846 2.574486 1.4198127e-38
1.4708179 0.31588849 2.5812044 1.1616649e-38
0.68732291 -0.6682986 2.6363454 5.4323143e-39
0.68667167 -0.62489992 2.6338477 6.6286854e-39
0.6859135 -0.57436764 2.6309395 6.8130767e-39
-1.4065909 -0.51679462 2.6245914 7.0896636e-39
0.68519294 -0.52634609 2.6281757 6.9056311e-39
-1.4064051 -0.47502813 2.6248608 7.0900237e-39
0.68443805 -0.47603276 2.6252801 6.9056325e-39
-1.4063886 -0.42529485 2.6245146 7.1822194e-39
0.68368471 -0.42582852 2.622391 6.8134368e-39
-1.4063697 -0.37494436 2.6241684 7.1825795e-39
-1.3984796 -0.36336574 2.6499619 7.2747765e-39
0.68293321 -0.37573636 2.6195083 6.7208811e-39
-1.4061188 -0.32492813 2.6245847 7.0896636e-39
-1.3984196 -0.32510293 2.6498485 7.182218e-39
0.68218315 -0.32575244 2.6166313 6.6283267e-39
-1.4062026 -0.27519163 2.6239057 6.9049122e-39
-1.3983411 -0.27488783 2.6496992 6.9049122e-39
0.68143487 -0.27587995 2.6137614 6.5361311e-39
-1.4063386 -0.2256082 2.6230583 7.1814977e-39
-1.3987547 -0.22044979 2.6479008 7.0896622e-39
0.68065268 -0.22374888 2.6107609 6.5357723e-39
-1.4068984 -0.17532006 2.6208136 6.9971078e-39
-1.3990566 -0.17428578 2.6465359 6.8127152e-39
0.67990768 -0.17409809 2.6079035 6.5361311e-39
-1.4067471 -0.12531078 2.620904 6.6279666e-39
-1.398978 -0.12414183 2.6463876 6.5354122e-39
0.67916447 -0.12455754 2.6050525 6.5364898e-39
-1.4066688 -0.075655185 2.6207576 6.6279652e-39
-1.3988994 -0.074003607 2.6462388 6.6283239e-39
0.67842275 -0.075123504 2.6022077 6.628684e-39
-1.4065914 -0.026005208 2.6206119 6.9978253e-39
-1.3988206 -0.023870913 2.64609 6.9978239e-39
0.67796427 -0.044572372 2.6004493 6.6290442e-39
-1.4065093 0.026003188 2.6204591 6.9052695e-39
-1.3987458 0.023869216 2.6459486 6.9056283e-39
-1.40643 0.07564193 2.6203134 6.8134326e-39
-1.3986673 0.073990814 2.6457996 6.8134326e-39
-1.4063522 0.12527508 2.6201675 6.7208783e-39
-1.3985889 0.12410688 2.6456511 6.6286826e-39
-1.4063462 0.17525077 2.6197846 6.4432138e-39
-1.3985101 0.17421719 2.6455023 6.4435725e-39
-1.4061282 0.22485261 2.620095 6.4435725e-39
-1.3984311 0.22432189 2.6453528 6.4439326e-39
-1.4062554 0.27515647 2.6192636 5.8893267e-39
-1.3983521 0.27442089 2.6452036 5.8893267e-39
-1.4056516 0.30822083 2.6209745 6.074797e-39
-1.3842478 0.31329432 2.6410332 6.8177809e-39
-1.3258115 0.31657618 2.6385539 7.3756504e-39
-1.2758076 0.31657162 2.6385159 7.3756504e-39
-1.2258058 0.3165673 2.6384795 7.3756504e-39
-1.1758049 0.31656283 2.6384425 7.3756504e-39
-1.1258051 0.31655833 2.6384046 7.3756504e-39
-1.0758078 0.31655401 2.6383693 7.3756504e-39
-1.0258113 0.31654963 2.6383326 7.3756504e-39
-0.97581595 0.31654513 2.6382949 7.3756504e-39
-0.92582172 0.31654057 2.6382573 7.3756504e-39
-0.8758297 0.31653625 2.6382213 7.3756504e-39
-0.83774155 0.31653303 2.6381941 7.2830932e-39
0.69464839 0.31639808 2.6370695 7.467846e-39
0.72556835 0.3163954 2.6370471 7.3756504e-39
0.77551472 0.31639099 2.6370103 7.3756504e-39
0.82545954 0.31638655 2.6369736 7.3756504e-39
0.8754037 0.31638232 2.6369386 7.3756504e-39
0.92534548 0.31637776 2.6369002 9.219563e-39
0.97528696 0.31637362 2.6368656 1.3368366e-38
1.0252267 0.31636932 2.6368296 1.4290323e-38
1.0751642 0.31636471 2.6367915 1.4290323e-38
1.1251012 0.31636041 2.6367555 1.4290323e-38
1.1750369 0.31635609 2.6367197 1.4290323e-38
1.2249709 0.31635171 2.636683 1.4290323e-38
1.2749037 0.31634739 2.6366467 1.3737149e-38
1.3248348 0.31634298 2.6366098 1.1432258e-38
1.374765 0.31633869 2.6365743 9.1273674e-39
1.4246945 0.31633446 2.6365395 7.3756504e-39
1.4746215 0.31633013 2.636503 7.3756504e-39
1.5102825 0.31632689 2.636476 7.3756504e-39
-1.3916309 -0.51694709 2.6736803 7.0896622e-39
-1.3915839 -0.47485045 2.6734922 6.997468e-39
-1.3915249 -0.42471269 2.6732786 7.1825781e-39
-1.390942 -0.37565535 2.6747949 7.2747751e-39
-1.3905426 -0.32498023 2.6756938 7.0900223e-39
-1.3903675 -0.27518344 2.6758657 6.9045521e-39
-1.3902055 -0.22507408 2.6759901 6.9974666e-39
-1.3903725 -0.17470369 2.6750336 6.7201622e-39
-1.3901346 -0.12550347 2.675415 6.5354122e-39
-1.3900555 -0.074815266 2.6752627 6.6276064e-39
-1.3899766 -0.024132719 2.6751103 6.9978253e-39
-1.3899015 0.024130983 2.6749663 6.813434e-39
-1.3898231 0.07480219 2.6748137 6.813434e-39
-1.3897438 0.12546775 2.6746621 6.628684e-39
-1.3898284 0.17463478 2.6739867 6.3513783e-39
0.70854032 0.18261139 2.6990504 5.9833202e-39
-1.3895043 0.22496006 2.6746404 6.4439326e-39
0.70789129 0.22379634 2.6965775 5.7989304e-39
-1.3895626 0.27531293 2.674037 5.981521e-39
0.70709097 0.27456957 2.6935289 5.7985716e-39
-1.3849307 0.31039989 2.675612 6.4457431e-39
-1.3257482 0.31692153 2.6817594 7.3756504e-39
-1.2749269 0.3169173 2.6817238 7.3756504e-39
-1.2241061 0.31691283 2.6816859 7.3756504e-39
-1.1757057 0.31690833 2.6816478 7.3756504e-39
-1.1248879 0.31690395 2.6816103 7.3756504e-39
-1.0740716 0.31689948 2.6815732 7.3756504e-39
-1.025676 0.31689516 2.681536 7.3756504e-39
-0.97486204 0.3168906 2.6814976 7.3756504e-39
-0.92404974 0.31688616 2.6814599 7.3756504e-39
-0.87565839 0.3168819 2.6814244 7.3756504e-39
-0.84420466 0.31687912 2.6814005 7.1905361e-39
0.72102034 0.31480628 2.682826 7.0965356e-39
0.77370632 0.31673604 2.6801901 7.3756504e-39
0.82446951 0.31673172 2.6801531 7.7444329e-39
0.87523109 0.31672725 2.6801157 1.2354214e-38
0.92357385 0.31672296 2.6800792 1.4290323e-38
0.97433257 0.31671855 2.680042 1.4290323e-38
1.0250899 0.31671411 2.6800041 1.4290323e-38
1.0734289 0.31670991 2.6799686 1.4290323e-38
1.1241838 0.31670558 2.6799321 1.3829344e-38
1.1749367 0.31670108 2.679894 1.2538606e-38
1.2256885 0.31669664 2.6798565 8.7585848e-39
1.2764388 0.3166922 2.6798191 7.3756504e-39
1.3247713 0.31668803 2.6797838 7.3756504e-39
1.375519 0.31668365 2.6797464 7.3756504e-39
1.4262654 0.3166793 2.6797099 7.3756504e-39
1.4745929 0.31667483 2.6796725 7.3756504e-39
1.5229206 0.31667084 2.6796379 7.3756504e-39
0.72177726 -0.65728897 2.7494738 4.6050815e-39
0.7212621 -0.62460262 2.7475116 4.6972772e-39
0.72047102 -0.5744006 2.7444978 4.7894714e-39
-1.3761039 -0.51669621 2.7246246 6.9974666e-39
0.7196815 -0.52430856 2.7414906 4.9735025e-39
-1.3762094 -0.47490507 2.7239392 6.7208811e-39
0.71889377 -0.47432619 2.7384896 5.8936497e-39
-1.3760767 -0.42480394 2.7239685 7.0900223e-39
0.71810776 -0.42445302 2.7354958 5.8014541e-39
-1.3760225 -0.37502065 2.723742 7.0903839e-39
0.71732342 -0.37468883 2.7325077 5.801094e-39
-1.3759686 -0.3252472 2.7235172 6.997468e-39
0.71654087 -0.32503328 2.7295268 5.7088998e-39
-1.3758335 -0.27517369 2.7235534 6.8123578e-39
0.71575999 -0.27548593 2.7265522 5.7085396e-39
-1.3756998 -0.22509556 2.7235847 6.8127166e-39
0.7149809 -0.22604644 2.7235842 5.6167041e-39
-1.3756351 -0.17502329 2.7233915 6.4435767e-39
0.71420336 -0.17671451 2.7206223 5.6167027e-39
-1.375702 -0.12437283 2.7227609 6.4432166e-39
0.71338886 -0.12503225 2.7175198 5.616344e-39
-1.3756032 -0.074016035 2.7226772 6.5357709e-39
0.71257621 -0.073465839 2.7144237 5.6167027e-39
-1.3754473 -0.024562817 2.7227871 6.9056297e-39
0.71180385 -0.024464991 2.711482 5.6167027e-39
-1.3753713 0.024561018 2.7226367 6.813434e-39
0.71103328 0.02442977 2.7085469 5.5248672e-39
-1.3747914 0.074716575 2.724138 6.8134326e-39
0.71026444 0.073218778 2.7056177 5.5245071e-39
-1.3744062 0.12457787 2.7249973 6.5364884e-39
0.70945883 0.12433288 2.7025492 6.2599043e-39
-1.3741891 0.17508389 2.7252975 6.3513783e-39
0.70892268 0.15835008 2.7005069 6.1677101e-39
-1.3740314 0.22506295 2.7254093 6.3517384e-39
-1.3741355 0.27503949 2.7246599 5.7974912e-39
-1.3722279 0.30976507 2.7247093 6.2609903e-39
-1.3232226 0.3172783 2.7264028 7.3756504e-39
-1.2740147 0.31727394 2.7263653 7.3756504e-39
-1.2248079 0.3172695 2.7263274 7.3756504e-39
-1.1756027 0.31726509 2.72629 7.3756504e-39
-1.1263986 0.31726068 2.7262514 7.3756504e-39
-1.0747361 0.31725615 2.726213 7.3756504e-39
-1.0230751 0.31725159 2.7261734 7.3756504e-39
-0.97387516 0.31724721 2.7261353 7.3756504e-39
-0.92467725 0.31724295 2.7260993 7.3756504e-39
-0.87547988 0.31723851 2.7260606 7.2830946e-39
0.73497498 0.31709629 2.7248387 7.8366285e-39
0.77675384 0.3170926 2.724807 1.0694693e-38
0.82590377 0.31708807 2.7247684 1.4013736e-38
0.87505341 0.31708398 2.7247331 1.4290323e-38
0.92420119 0.31707966 2.7246962 1.4290323e-38
0.97334749 0.31707537 2.724659 1.4198127e-38
1.0249499 0.31707087 2.7246201 1.2815193e-38
1.076551 0.31706637 2.7245817 8.8507805e-39
1.1256931 0.31706208 2.724545 7.7444329e-39
1.174834 0.31705779 2.7245078 7.3756504e-39
1.2239738 0.3170535 2.7244709 7.3756504e-39
1.2731124 0.31704921 2.7244346 7.3756504e-39
1.324706 0.31704471 2.7243955 7.3756504e-39
1.3762987 0.31704021 2.7243571 7.3756504e-39
1.4254326 0.31703588 2.7243199 7.3756504e-39
1.4745661 0.31703171 2.7242837 7.3756504e-39
1.5236977 0.31702742 2.7242472 7.3756504e-39
1.5605456 0.31702423 2.7242196 7.3756504e-39
0.72205508 -0.67491126 2.7505319 4.145188e-39
-1.3612143 -0.51606822 2.7734742 6.9052695e-39
-1.361077 -0.4747583 2.7735887 6.6283267e-39
-1.3610009 -0.42469269 2.7734337 6.9059912e-39
-1.3609859 -0.37494799 2.7730799 6.9985484e-39
-1.3609313 -0.32490006 2.7728531 6.9049136e-39
-1.3608576 -0.27485338 2.7726882 6.7205209e-39
-1.3606966 -0.22512528 2.7728138 6.7205209e-39
-1.3606204 -0.17508768 2.7726593 6.4435767e-39
-1.360544 -0.12505575 2.7725034 6.3506636e-39
-1.3604674 -0.075029306 2.7723465 6.5357709e-39
-1.3603914 -0.02500852 2.7721918 6.813434e-39
-1.3603152 0.025006661 2.7720373 6.7212384e-39
-1.3596988 0.074259788 2.7736611 6.7212384e-39
-1.3592088 0.12516132 2.7748554 6.4442942e-39
-1.359023 0.17555882 2.7750556 6.2595428e-39
-1.3581754 0.22521222 2.7774336 6.2599029e-39
-1.3580133 0.27499208 2.7775586 5.6127427e-39
-1.3580619 0.30938372 2.7762926 6.1673542e-39
-1.325616 0.31764761 2.7725616 7.2834534e-39
-1.2755744 0.31764308 2.772522 7.3756504e-39
-1.2255347 0.31763858 2.7724826 7.3756504e-39
-1.1754965 0.31763414 2.7724442 7.3756504e-39
-1.1254594 0.31762967 2.7724054 7.3756504e-39
-1.0754236 0.31762511 2.7723656 7.3756504e-39
-1.0253899 0.31762072 2.7723277 7.3756504e-39
-0.97535741 0.31761637 2.7722893 7.3756504e-39
-0.92532557 0.31761175 2.772249 7.3756504e-39
-0.88280046 0.31760809 2.772217 7.2830932e-39
0.73991686 0.31746435 2.7709625 1.4290323e-38
0.77490526 0.31746119 2.7709346 1.4290323e-38
0.82488823 0.31745702 2.7708976 1.4290323e-38
0.87486935 0.31745261 2.77086 1.2077628e-38
0.92484868 0.31744808 2.7708201 9.5883455e-39
0.97482729 0.31744376 2.7707825 7.7444329e-39
1.024804 0.31743938 2.7707441 7.3756504e-39
1.0747802 0.31743509 2.7707071 7.3756504e-39
1.1247544 0.31743073 2.7706687 7.3756504e-39
1.1747274 0.31742638 2.7706311 7.3756504e-39
1.224699 0.31742197 2.7705925 7.3756504e-39
1.2746685 0.31741744 2.7705531 7.3756504e-39
1.324638 0.31741327 2.7705164 7.3756504e-39
1.3746053 0.31740889 2.770478 7.3756504e-39
1.4245713 0.31740448 2.7704396 7.3756504e-39
1.4745365 0.31740028 2.7704027 7.3756504e-39
1.5244997 0.31739587 2.7703643 7.3756504e-39
1.5744611 0.31739134 2.7703252 7.3756504e-39
-1.3514663 -0.51629168 2.8054612 6.8127152e-39
-1.3436691 -0.51553822 2.8310392 6.7208797e-39
-1.351405 -0.47577682 2.8053339 6.7205209e-39
-1.343474 -0.47507611 2.8313501 6.7208811e-39
-1.3513284 -0.42513815 2.8051748 6.9056311e-39
-1.3433475 -0.42524746 2.8313608 6.8134354e-39
-1.3512517 -0.37450522 2.8050158 6.998547e-39
-1.3433059 -0.37499127 2.8310916 7.0903839e-39
1.5894126 -0.36461619 2.8463397 2.8580645e-39
1.6181177 -0.36577439 2.8375814 3.4112383e-39
-1.3511751 -0.32387808 2.8048565 6.7205223e-39
-1.3433168 -0.32517657 2.8306518 6.8130781e-39
1.5885067 -0.3225075 2.8462801 2.8580645e-39
1.6176826 -0.32507521 2.8373895 2.8580645e-39
-1.3510984 -0.27325666 2.8046975 6.8130753e-39
-1.3432584 -0.27537295 2.8304408 6.7208811e-39
1.5868753 -0.2747519 2.8463984 2.8580645e-39
1.6174943 -0.27640992 2.8370593 2.8580645e-39
-1.3509719 -0.22385179 2.8047118 6.6279666e-39
-1.3430971 -0.22470662 2.8305581 6.5357709e-39
1.5866898 -0.22593793 2.8460653 2.8580645e-39
1.6172956 -0.22519538 2.8367114 2.8580645e-39
-1.3519328 -0.17688866 2.801178 6.5361311e-39
-1.3438673 -0.17412804 2.8276215 6.6279666e-39
1.5864948 -0.17456704 2.8457155 2.8580645e-39
1.6170981 -0.17399347 2.8363643 2.8580645e-39
-1.3518562 -0.12634195 2.8010192 6.1662738e-39
-1.3439993 -0.12533355 2.8267918 6.258468e-39
1.5853775 -0.12272219 2.8456435 2.8580645e-39
1.6169095 -0.12536305 2.8360333 2.8580645e-39
-1.3517798 -0.07580097 2.8008609 6.4435753e-39
-1.3439523 -0.076161146 2.8265457 6.4432166e-39
1.5841255 -0.074846618 2.845644 2.8580645e-39
1.6167214 -0.076744214 2.8357034 2.8580645e-39
-1.3517034 -0.025265718 2.8007026 6.721237e-39
-1.3437893 -0.02549999 2.8266709 6.7212384e-39
1.5837337 -0.025668973 2.8453724 2.8580645e-39
1.6165234 -0.025578612 2.8353567 2.8580645e-39
-1.3516266 0.025263816 2.8005435 6.7212384e-39
-1.3437126 0.025498049 2.8265092 6.6290442e-39
1.5835387 0.025664777 2.845021 2.8580645e-39
1.6163251 0.025574451 2.8350091 2.8580645e-39
-1.3515501 0.075787626 2.800385 6.6294015e-39
-1.3437232 0.076147661 2.8260636 6.6294015e-39
1.5828955 0.075858034 2.8448186 2.8580645e-39
1.6161276 0.076714985 2.8346615 2.8580645e-39
-1.3514738 0.12630571 2.8002267 6.4442942e-39
-1.343622 0.1252979 2.8259974 6.4442942e-39
1.5806332 0.12378889 2.8451266 2.8580645e-39
1.6159391 0.125287 2.8343318 2.8580645e-39
-1.3514011 0.17429264 2.8000762 6.2591841e-39
-1.3433428 0.17405961 2.8265181 6.2591841e-39
1.5807785 0.1745024 2.8446782 2.8580645e-39
1.6157513 0.17384748 2.8340025 2.8580645e-39
-1.3434135 0.22433475 2.8258796 6.2595456e-39
1.5805844 0.22579904 2.8443291 2.8580645e-39
1.6155531 0.22495165 2.8336554 2.8580645e-39
-1.3434241 0.27494165 2.8254333 5.5205484e-39
1.5798091 0.2761595 2.8441637 2.8580645e-39
1.6153553 0.27604342 2.8333085 2.8580645e-39
-1.3374164 0.31150252 2.823631 6.354272e-39
-1.2746428 0.31802464 2.8202667 7.3756504e-39
-1.2262866 0.31802037 2.8202281 7.3756504e-39
-1.1753867 0.31801587 2.8201888 7.3756504e-39
-1.1244878 0.31801122 2.8201473 7.3756504e-39
-1.073591 0.31800681 2.8201079 7.3756504e-39
-1.0252404 0.31800255 2.8200707 7.3756504e-39
-0.97689039 0.31799814 2.8200316 7.3756504e-39
-0.92599773 0.31799376 2.8199925 7.3756504e-39
-0.89037305 0.31799036 2.8199625 7.2827331e-39
0.74502921 0.31784523 2.8186753 1.0694693e-38
0.77299368 0.31784278 2.8186538 9.8649324e-39
0.8238368 0.31783828 2.818614 7.3756504e-39
0.87467879 0.3178339 2.8185747 7.3756504e-39
0.92551911 0.31782934 2.8185349 7.3756504e-39
0.97635812 0.31782493 2.8184955 7.3756504e-39
1.0246544 0.31782082 2.8184588 7.3756504e-39
1.0729488 0.31781659 2.8184216 7.3756504e-39
1.1237836 0.31781211 2.8183818 7.3756504e-39
1.1746166 0.31780759 2.8183413 7.3756504e-39
1.225449 0.3178032 2.8183026 7.3756504e-39
1.2762797 0.31779876 2.8182633 7.3756504e-39
1.3271096 0.31779447 2.8182251 7.3756504e-39
1.3753957 0.31779012 2.8181868 7.3756504e-39
1.4236804 0.31778583 2.8181486 7.3756504e-39
1.474506 0.31778148 2.8181102 7.3756504e-39
1.5253289 0.31777686 2.818069 7.3756504e-39
1.578226 0.31071118 2.8385198 3.7800208e-39
1.6168022 0.31082705 2.8296454 3.5034339e-39
-1.3303442 -0.5156976 2.8747616 6.8127166e-39
-1.330313 -0.47491854 2.8745329 6.7208811e-39
-1.3302704 -0.42488271 2.8742652 6.8134354e-39
-1.330043 -0.374865 2.8746073 6.9985484e-39
1.431016 -0.36559156 2.8947248 2.8580645e-39
1.4746962 -0.36469555 2.8813772 3.0424558e-39
1.525349 -0.36712527 2.865926 3.1346514e-39
1.5652221 -0.36556357 2.8537357 2.8580645e-39
-1.3301513 -0.32483256 2.8738475 6.8134354e-39
1.4305264 -0.32439169 2.8945465 2.8580645e-39
1.4737748 -0.3249121 2.8813417 2.8580645e-39
1.5251981 -0.32572699 2.8656428 2.8580645e-39
1.5644913 -0.32530975 2.8536382 2.8580645e-39
-1.3299861 -0.27481705 2.8739839 6.7208797e-39
1.4310728 -0.27482846 2.8939843 2.8580645e-39
1.4736007 -0.27549312 2.8810008 2.8580645e-39
1.5250094 -0.27399057 2.8652871 2.8580645e-39
1.5626816 -0.27546579 2.8537929 2.8580645e-39
-1.329818 -0.22479069 2.87413 6.7205209e-39
1.429328 -0.22376096 2.8941102 2.8580645e-39
1.4727792 -0.22461344 2.8808458 2.8580645e-39
1.5248297 -0.22485253 2.8649509 2.8580645e-39
1.5624983 -0.22652487 2.8534586 2.8580645e-39
-1.3300213 -0.17519461 2.8730602 6.6286854e-39
1.428092 -0.17492415 2.8940983 2.8580645e-39
1.4738958 -0.17532633 2.8801119 2.8580645e-39
1.5246506 -0.17572631 2.8646128 2.8580645e-39
1.5623055 -0.1750205 2.853107 2.8580645e-39
-1.3297606 -0.12442691 2.8735018 6.3513811e-39
1.4279222 -0.12530415 2.8937538 2.8580645e-39
1.4744586 -0.12415233 2.8795321 2.8580645e-39
1.5257525 -0.12455541 2.8638692 2.8580645e-39
1.5615549 -0.12468534 2.8529351 2.8580645e-39
-1.3296875 -0.075170487 2.8733442 6.3513811e-39
1.4277529 -0.075695693 2.8934109 2.8580645e-39
1.4751366 -0.075317018 2.8789353 2.8580645e-39
1.5265088 -0.074906446 2.8632421 2.8580645e-39
1.559727 -0.074640967 2.8530943 2.8580645e-39
-1.329614 -0.025919607 2.8731856 6.6290428e-39
1.426385 -0.025414048 2.8934278 2.8580645e-39
1.4749625 -0.025968697 2.8785949 2.8580645e-39
1.5263288 -0.025827147 2.862906 2.8580645e-39
1.5595442 -0.025735628 2.8527603 2.8580645e-39
-1.329537 0.025917603 2.8730183 6.5372087e-39
1.4258567 0.026629906 2.8931749 2.8580645e-39
1.4754142 0.02549543 2.8780472 2.8580645e-39
1.5261403 0.025822895 2.8625512 2.8580645e-39
1.5593523 0.025731405 2.8524086 2.8580645e-39
-1.3293338 0.075495549 2.8732836 6.5368485e-39
1.4272279 0.075667471 2.8923645 2.8580645e-39
1.4768534 0.075271033 2.8772113 2.8580645e-39
1.525961 0.074878715 2.8622153 2.8580645e-39
1.5585731 0.073216103 2.8522677 2.8580645e-39
-1.3283544 0.12453894 2.8761015 6.3520986e-39
1.4270586 0.12522802 2.8920209 2.8580645e-39
1.4766787 0.12457202 2.8768721 2.8580645e-39
1.5257821 0.12392283 2.8618786 2.8580645e-39
1.5567826 0.12351296 2.8524137 2.8580645e-39
-1.3284795 0.17546457 2.8752773 6.1677087e-39
1.3995835 0.18835509 2.8999093 2.8580645e-39
1.4268888 0.17477696 2.8916781 2.8580645e-39
1.4770011 0.17579009 2.8763635 2.8580645e-39
1.5255934 0.17553583 2.861526 2.8580645e-39
1.556591 0.17495535 2.852062 2.8580645e-39
-1.3280951 0.22503828 2.8761356 6.1680688e-39
1.3994608 0.22495946 2.8996551 2.8580645e-39
1.4267199 0.22431394 2.8913343 2.8580645e-39
1.475795 0.22498102 2.8763404 2.8580645e-39
1.5259329 0.2253013 2.8610253 2.8580645e-39
1.5563991 0.22638507 2.8517106 2.8580645e-39
-1.3281981 0.27464625 2.8753948 5.5212673e-39
1.3992941 0.27462739 2.8993096 2.8580645e-39
1.427193 0.27530831 2.8907828 2.8580645e-39
1.4761466 0.27499801 2.8758347 2.8580645e-39
1.524735 0.27422947 2.8610003 2.8580645e-39
1.5554585 0.27302 2.8516262 2.8580645e-39
-1.3259428 0.31061471 2.874229 6.2613519e-39
-1.2736778 0.31841946 2.8696823 7.3756504e-39
