# .PCD v0.7 - Point Cloud Data file format
VERSION 0.7
FIELDS x y z rgb
SIZE 4 4 4 4
TYPE F F F F
COUNT 1 1 1 1
WIDTH 1050
HEIGHT 1
VIEWPOINT 0 0 0 1 0 0 0
POINTS 1050
DATA ascii
0.17505687 0.32247448 3.4044383 8.6663892e-39
0.2272339 0.32242727 3.4039397 1.4290323e-38
0.2763277 0.32238299 3.4034717 1.4290323e-38
0.32540786 0.32233852 3.4030025 1.4290323e-38
0.37447444 0.32229406 3.4025333 1.4290323e-38
0.42352754 0.32224965 3.4020646 1.4290323e-38
0.47256717 0.32220531 3.4015961 1.4290323e-38
0.52465671 0.32215804 3.4010973 1.4290323e-38
0.57673126 0.32211086 3.4005992 1.4290323e-38
0.619605 0.32207209 3.4001901 1.4290323e-38
1.1210836 0.31054977 3.4424698 4.0566077e-39
1.1198173 -1.4722934 3.4577382 4.0566077e-39
1.1201718 -1.4228354 3.4588327 4.0566077e-39
1.1205266 -1.3733461 3.4599285 4.0566077e-39
1.1208816 -1.3238254 3.4610243 4.0566077e-39
1.1212368 -1.2742733 3.462121 4.0566077e-39
1.1215922 -1.2246898 3.4632185 4.0566077e-39
1.1219478 -1.1750748 3.4643168 4.0566077e-39
1.1223036 -1.1254284 3.4654155 4.0566077e-39
1.1226597 -1.0757506 3.4665146 4.0566077e-39
1.1230159 -1.0260412 3.4676147 4.0566077e-39
1.1233724 -0.97630012 3.4687157 4.0566077e-39
1.1237292 -0.92652756 3.4698172 4.0566077e-39
1.1240863 -0.87672329 3.4709194 4.0566077e-39
1.1244434 -0.82688743 3.4720225 4.0566077e-39
1.1248009 -0.77701986 3.4731264 4.0566077e-39
1.1251587 -0.72712076 3.4742312 4.0566077e-39
1.1255168 -0.67718983 3.4753368 4.0566077e-39
1.125875 -0.62722713 3.4764431 4.0566077e-39
1.1262336 -0.57723254 3.47755 4.0566077e-39
1.1265923 -0.52720624 3.4786577 4.0566077e-39
1.1269512 -0.47714797 3.4797659 4.0566077e-39
1.1273104 -0.42705774 3.480875 4.0566077e-39
1.1276698 -0.37693569 3.4819851 4.0566077e-39
1.1280295 -0.32678163 3.4830954 4.0566077e-39
1.1283895 -0.27659553 3.4842072 4.0566077e-39
1.1287495 -0.22637743 3.4853187 4.0566077e-39
1.1291099 -0.17612724 3.4864318 4.0566077e-39
1.1294703 -0.12584497 3.4875445 4.0566077e-39
1.1298313 -0.075530574 3.4886589 4.0566077e-39
1.1301922 -0.025184024 3.4897738 4.0566077e-39
1.1305535 0.025194714 3.4908891 4.0566077e-39
1.130915 0.075605676 3.4920053 4.0566077e-39
1.1312766 0.12604886 3.4931221 4.0566077e-39
1.1316386 0.17652436 3.49424 4.0566077e-39
1.1320008 0.22703214 3.4953582 4.0566077e-39
1.1323632 0.27757227 3.4964769 4.0566077e-39
-0.21351068 0.32340568 3.4805651 7.3756504e-39
-0.17581433 0.32337168 3.4801998 7.3756504e-39
-0.12556408 0.32332605 3.4797082 7.3756504e-39
-0.075328074 0.32328051 3.479218 7.3756504e-39
-0.025106214 0.32323498 3.4787283 7.3756504e-39
0.025101535 0.32318968 3.478241 7.3756504e-39
0.075295068 0.32314384 3.4777474 7.3756504e-39
0.12547456 0.32309848 3.4772592 7.3756504e-39
0.17563991 0.32305306 3.4767706 7.3756504e-39
0.2257911 0.32300752 3.4762805 1.3644953e-38
0.27592814 0.32296205 3.4757905 1.4290323e-38
0.32605124 0.32291672 3.4753027 1.4290323e-38
0.37616 0.32287115 3.4748127 1.4290323e-38
0.42625481 0.32282576 3.4743242 1.4290323e-38
0.47633541 0.32278031 3.473835 1.4290323e-38
0.52640206 0.32273495 3.4733467 1.4290323e-38
0.5764547 0.32268965 3.4728594 1.4290323e-38
0.62649292 0.32264414 3.4723697 1.4290323e-38
0.67651755 0.32259893 3.4718831 1.4290323e-38
0.72652781 0.32255355 3.4713945 1.4290323e-38
0.77652401 0.32250816 3.4709063 1.4290323e-38
0.82650614 0.32246286 3.4704187 1.4290323e-38
0.87647414 0.3224175 3.4699302 1.4290323e-38
0.92642832 0.32237223 3.4694433 1.4290323e-38
0.97636825 0.3223269 3.468955 1.4290323e-38
1.0262945 0.32228166 3.4684684 1.4290323e-38
1.0762063 0.32223639 3.4679809 7.0068679e-39
1.1217661 0.31797403 3.4803145 4.0566077e-39
1.1312872 -1.5115515 3.5127239 4.0566077e-39
1.1315371 -1.4770192 3.5135002 4.0566077e-39
1.1319013 -1.426765 3.5146308 4.0566077e-39
1.1322654 -1.3764783 3.5157616 4.0566077e-39
1.1326299 -1.326159 3.5168929 4.0566077e-39
1.1329947 -1.2758076 3.5180259 4.0566077e-39
1.1333596 -1.2254239 3.5191588 4.0566077e-39
1.1337247 -1.1750075 3.5202925 4.0566077e-39
1.1340901 -1.1245586 3.5214272 4.0566077e-39
1.1344557 -1.0740771 3.5225625 4.0566077e-39
1.1348215 -1.0235631 3.5236986 4.0566077e-39
1.1351876 -0.97301662 3.5248351 4.0566077e-39
1.135554 -0.92243749 3.5259728 4.0566077e-39
1.1358976 -0.87499017 3.52704 4.0566077e-39
1.1362417 -0.82751346 3.5281076 4.0566077e-39
1.1366086 -0.77684039 3.5292475 4.0566077e-39
1.1369761 -0.7261346 3.5303884 4.0566077e-39
1.1373438 -0.67539608 3.5315304 4.0566077e-39
1.1377118 -0.62462467 3.5326724 4.0566077e-39
1.1380798 -0.57382041 3.5338156 4.0566077e-39
1.1384481 -0.52298325 3.5349591 4.0566077e-39
1.1387938 -0.47529387 3.5360322 4.0566077e-39
1.1391395 -0.42757481 3.537106 4.0566077e-39
1.1395086 -0.37664294 3.5382521 4.0566077e-39
1.1398779 -0.32567805 3.5393984 4.0566077e-39
1.1402473 -0.27468008 3.5405459 4.0566077e-39
1.1406173 -0.22364908 3.5416944 4.0566077e-39
1.1409872 -0.17258494 3.5428429 4.0566077e-39
1.1413343 -0.12468255 3.543921 4.0566077e-39
1.1416817 -0.076750346 3.5449996 4.0566077e-39
1.1420523 -0.025590848 3.5461502 4.0566077e-39
1.1424233 0.025601886 3.5473022 4.0566077e-39
1.1427945 0.076827884 3.5484548 4.0566077e-39
1.1431427 0.12488218 3.549536 4.0566077e-39
0.42590216 0.32342979 3.549752 1.4290323e-38
0.47387218 0.32338619 3.5492735 1.4290323e-38
0.52502632 0.32333976 3.5487638 1.4290323e-38
0.57616568 0.32329327 3.5482538 1.4290323e-38
0.62729007 0.32324672 3.5477431 1.4290323e-38
0.6752063 0.32320327 3.5472658 1.4290323e-38
0.72310919 0.32315966 3.5467873 1.4290323e-38
0.77419198 0.32311344 3.5462801 1.4290323e-38
0.82525939 0.32306689 3.545769 1.4290323e-38
0.87631273 0.32302058 3.5452611 1.4290323e-38
0.92735106 0.32297421 3.5447519 1.4290323e-38
0.97518647 0.32293078 3.5442753 1.4290323e-38
1.0230086 0.3228873 3.5437977 1.4290323e-38
1.0740045 0.32284084 3.5432882 1.0049324e-38
1.1218008 0.32279757 3.5428128 4.0566077e-39
1.1433376 -1.5233755 3.5701423 4.0566077e-39
1.1436881 -1.4755173 3.5712366 4.0566077e-39
1.144062 -1.4244363 3.5724041 4.0566077e-39
1.1444362 -1.373322 3.5735722 4.0566077e-39
1.1447871 -1.3253723 3.5746684 4.0566077e-39
1.1451384 -1.2773924 3.5757651 4.0566077e-39
1.1455133 -1.2261819 3.5769362 4.0566077e-39
1.1458883 -1.1749377 3.5781074 4.0566077e-39
1.1462637 -1.1236601 3.5792797 4.0566077e-39
1.146616 -1.075557 3.580379 4.0566077e-39
1.1469684 -1.0274239 3.5814793 4.0566077e-39
1.1473445 -0.97604936 3.5826538 4.0566077e-39
1.1477207 -0.92464125 3.5838289 4.0566077e-39
1.1480973 -0.8731994 3.5850046 4.0566077e-39
1.1484506 -0.82494241 3.586108 4.0566077e-39
1.1488043 -0.77665508 3.5872121 4.0566077e-39
1.1491817 -0.72511613 3.5883908 4.0566077e-39
1.1495595 -0.67354333 3.5895703 4.0566077e-39
1.1498666 -0.63161629 3.5905292 4.0566077e-39
1.150032 -0.60903096 3.5910459 4.0566077e-39
1.1502683 -0.5767529 3.5917838 4.0566077e-39
1.1506468 -0.52508253 3.5929656 4.0566077e-39
1.1510255 -0.47337812 3.5941479 4.0566077e-39
1.1513807 -0.42487463 3.5952573 4.0566077e-39
1.1517361 -0.37634057 3.5963674 4.0566077e-39
1.1521156 -0.3245382 3.5975518 4.0566077e-39
1.1524951 -0.27270168 3.5987375 4.0566077e-39
1.1528038 -0.23056023 3.5997009 4.0566077e-39
1.1434911 0.17296641 3.5506179 4.0566077e-39
1.143863 0.22428823 3.5517728 4.0566077e-39
1.1442351 0.27564347 3.5529282 4.0566077e-39
-0.21493876 0.3240118 3.5561402 7.3756504e-39
-0.17321436 0.32397392 3.5557239 7.3756504e-39
-0.12508246 0.32393032 3.5552459 7.3756504e-39
-0.07696373 0.32388645 3.5547643 7.3756504e-39
-0.025651291 0.32383984 3.5542526 7.3756504e-39
0.0256464 0.32379335 3.5537424 7.3756504e-39
0.076929338 0.32374686 3.5532322 7.3756504e-39
0.12499378 0.32370308 3.5527513 7.3756504e-39
0.17304511 0.32365957 3.552274 7.3756504e-39
0.22428556 0.32361293 3.5517616 1.1524454e-38
0.27551147 0.3235665 3.5512524 1.4290323e-38
0.3267225 0.32351995 3.5507412 1.4290323e-38
0.37471953 0.32347623 3.5502617 1.4290323e-38
0.40031296 0.32345289 3.5500054 1.4290323e-38
1.1444911 0.31096837 3.5537231 4.0566077e-39
1.1555969 -1.5615286 3.6288664 4.0566077e-39
1.1558607 -1.5258658 3.6296952 4.0566077e-39
1.1562449 -1.4739652 3.6309016 4.0566077e-39
1.156605 -1.4252771 3.6320329 4.0566077e-39
1.1569657 -1.3765583 3.6331654 4.0566077e-39
1.1573505 -1.3245585 3.6343739 4.0566077e-39
1.1577116 -1.2757775 3.6355076 4.0566077e-39
1.1580728 -1.2269653 3.636642 4.0566077e-39
1.1584585 -1.1748658 3.6378527 4.0566077e-39
1.1588202 -1.1259912 3.6389887 4.0566077e-39
1.1591821 -1.0770855 3.6401253 4.0566077e-39
1.1595684 -1.0248861 3.6413383 4.0566077e-39
1.1599309 -0.97591799 3.6424766 4.0566077e-39
1.1602935 -0.92691857 3.6436155 4.0566077e-39
1.1606804 -0.87461895 3.6448305 4.0566077e-39
1.1610439 -0.82555693 3.6459715 4.0566077e-39
1.1614072 -0.77646345 3.6471126 4.0566077e-39
1.1617953 -0.72406363 3.6483312 4.0566077e-39
1.1621592 -0.67490721 3.6494746 4.0566077e-39
1.1529702 -0.20785934 3.6002204 4.0566077e-39
1.1532078 -0.1754161 3.6009622 4.0566077e-39
1.1535881 -0.12348127 3.60215 4.0566077e-39
1.153945 -0.074761555 3.6032641 4.0566077e-39
1.154302 -0.026011029 3.6043794 4.0566077e-39
1.154683 0.026022436 3.6055689 4.0566077e-39
1.1550406 0.074834689 3.6066854 4.0566077e-39
1.1553984 0.12367784 3.6078024 4.0566077e-39
1.1557801 0.1758102 3.6089945 4.0566077e-39
1.1561383 0.22471528 3.6101131 4.0566077e-39
1.1564966 0.2736513 3.6112318 4.0566077e-39
-0.21643008 0.32464463 3.6350663 7.3756504e-39
-0.17377934 0.32460576 3.6346319 7.3756504e-39
-0.12457964 0.32456112 3.6341314 7.3756504e-39
-0.075393178 0.32451633 3.6336303 7.3756504e-39
-0.026220568 0.32447168 3.6331303 7.3756504e-39
0.026215445 0.32442388 3.6325953 7.3756504e-39
0.075360313 0.32437906 3.6320934 7.3756504e-39
0.12449136 0.32433441 3.6315935 7.3756504e-39
0.17688307 0.32428682 3.6310604 7.3756504e-39
0.22598645 0.32424212 3.6305599 9.6805411e-39
0.27507603 0.32419747 3.6300602 1.4290323e-38
0.3241522 0.32415271 3.6295583 1.4290323e-38
0.37321475 0.32410812 3.6290593 1.4290323e-38
0.4255335 0.32406059 3.6285274 1.4290323e-38
0.47456822 0.32401589 3.6280265 1.4290323e-38
0.52358925 0.32397124 3.6275268 1.4290323e-38
0.5758639 0.3239238 3.6269956 1.4290323e-38
0.62485743 0.32387921 3.6264966 1.4290323e-38
0.67383718 0.32383466 3.6259975 1.4290323e-38
0.7260673 0.32378703 3.6254644 1.4290323e-38
0.77501959 0.32374254 3.6249661 1.4290323e-38
0.82395768 0.32369789 3.6244659 1.4290323e-38
0.87614411 0.32365045 3.6239357 1.4290323e-38
0.92505533 0.32360607 3.6234379 1.4290323e-38
0.97395229 0.32356155 3.6229398 1.4290323e-38
1.0260942 0.32351398 3.6224067 1.4290323e-38
1.0749642 0.32346964 3.6219103 1.3276171e-38
1.1238198 0.32342508 3.6214116 4.0566077e-39
1.1560521 0.31493616 3.613924 4.0566077e-39
1.1684633 -1.5745945 3.6901779 4.0566077e-39
1.1688334 -1.5251429 3.6913466 4.0566077e-39
1.1692036 -1.4756604 3.6925163 4.0566077e-39
1.1695743 -1.426146 3.6936867 4.0566077e-39
1.1699697 -1.3732963 3.6949358 4.0566077e-39
1.1703408 -1.3237177 3.6961076 4.0566077e-39
1.170712 -1.2741067 3.6972802 4.0566077e-39
1.1710835 -1.2244653 3.6984537 4.0566077e-39
1.1714057 -1.1814169 3.6994708 4.0566077e-39
1.1625234 -0.62571931 3.6506178 4.0566077e-39
1.1629121 -0.5732187 3.6518385 4.0566077e-39
1.1632767 -0.52396774 3.6529834 4.0566077e-39
1.1636417 -0.47468525 3.6541297 4.0566077e-39
1.1640068 -0.42537251 3.6552761 4.0566077e-39
1.1643722 -0.37602812 3.6564233 4.0566077e-39
1.164762 -0.32336026 3.6576478 4.0566077e-39
1.1651279 -0.27395248 3.6587965 4.0566077e-39
1.165494 -0.22451296 3.6599464 4.0566077e-39
1.1658603 -0.17504308 3.6610968 4.0566077e-39
1.1662269 -0.12554137 3.6622477 4.0566077e-39
1.1665936 -0.076009236 3.6633992 4.0566077e-39
1.1669606 -0.026445244 3.6645515 4.0566077e-39
1.1673522 0.026457032 3.6657817 4.0566077e-39
1.1677198 0.076084837 3.6669354 4.0566077e-39
1.1680874 0.12574458 3.6680903 4.0566077e-39
1.1684554 0.17543493 3.6692455 4.0566077e-39
1.1688236 0.22515728 3.6704018 4.0566077e-39
1.169192 0.27491024 3.6715586 4.0566077e-39
1.1694622 0.3114152 3.6724074 4.0566077e-39
1.1716042 -1.1549145 3.7000971 4.0566077e-39
1.1718273 -1.1250867 3.7008021 4.0566077e-39
1.1721995 -1.0753496 3.7019777 4.0566077e-39
1.172572 -1.0255817 3.7031541 4.0566077e-39
1.1729447 -0.97578156 3.7043312 4.0566077e-39
1.1733177 -0.92595047 3.7055089 4.0566077e-39
1.173691 -0.87608683 3.7066877 4.0566077e-39
1.1740644 -0.82619232 3.7078674 4.0566077e-39
1.1744382 -0.77626544 3.7090478 4.0566077e-39
1.1748123 -0.72630727 3.7102292 4.0566077e-39
1.1751865 -0.67631674 3.7114115 4.0566077e-39
1.1755611 -0.62629497 3.7125943 4.0566077e-39
1.1759359 -0.5762406 3.7137775 4.0566077e-39
1.1763109 -0.52615499 3.7149622 4.0566077e-39
1.1766862 -0.47603676 3.7161472 4.0566077e-39
1.1770617 -0.42588726 3.7173328 4.0566077e-39
1.1774374 -0.37570503 3.7185199 4.0566077e-39
1.1778133 -0.32549143 3.7197073 4.0566077e-39
1.1781896 -0.27524507 3.7208948 4.0566077e-39
1.178566 -0.22496729 3.722084 4.0566077e-39
1.1789427 -0.17465666 3.7232735 4.0566077e-39
1.1793196 -0.1243146 3.7244639 4.0566077e-39
1.1796968 -0.073939607 3.7256548 4.0566077e-39
1.1800743 -0.023533095 3.7268469 4.0566077e-39
1.1804266 0.023542419 3.7279603 4.0566077e-39
1.1808045 0.074012049 3.7291536 4.0566077e-39
1.1811827 0.12451328 3.7303479 4.0566077e-39
1.1815611 0.17504759 3.7315426 4.0566077e-39
1.1819397 0.22561356 3.7327383 4.0566077e-39
1.1823184 0.27621269 3.7339349 4.0566077e-39
-0.22134493 0.32530943 3.7176139 7.3756504e-39
-0.17437041 0.3252666 3.7171249 7.3756504e-39
-0.12405377 0.32522073 3.7165999 7.3756504e-39
-0.073751651 0.32517484 3.7160759 7.3756504e-39
-0.023463417 0.32512894 3.7155511 7.3756504e-39
0.023459328 0.32508618 3.7150629 7.3756504e-39
0.073719822 0.32504028 3.7145381 7.3756504e-39
0.12396647 0.3249945 3.7140148 7.3756504e-39
0.17419857 0.32494861 3.7134902 7.3756504e-39
0.22441697 0.32490292 3.7129686 7.467846e-39
0.27462089 0.32485721 3.7124462 1.392154e-38
0.32481077 0.32481128 3.7119212 1.4290323e-38
0.37498632 0.3247655 3.7113981 1.4290323e-38
0.42514834 0.32472 3.7108781 1.4290323e-38
0.47529554 0.32467413 3.7103541 1.4290323e-38
0.52542889 0.32462835 3.709831 1.4290323e-38
0.57554823 0.32458284 3.7093103 1.4290323e-38
0.62565339 0.32453704 3.7087872 1.4290323e-38
0.67574418 0.32449135 3.7082651 1.4290323e-38
0.72582155 0.32444581 3.7077446 1.4290323e-38
0.77588409 0.3244001 3.7072222 1.4290323e-38
0.82593262 0.32435432 3.7066991 1.4290323e-38
0.87596714 0.32430869 3.7061777 1.4290323e-38
0.92598832 0.32426324 3.705658 1.4290323e-38
0.97599494 0.32421771 3.7051377 1.4290323e-38
1.025987 0.32417196 3.7046149 1.4290323e-38
1.0759652 0.32412639 3.7040939 1.4290323e-38
1.1259295 0.32408071 3.703572 5.9927159e-39
1.1711482 0.31945759 3.7167442 4.0566077e-39
1.1815944 -1.6115723 3.7530324 4.0566077e-39
1.1818734 -1.5747013 3.7539191 4.0566077e-39
1.1822543 -1.524395 3.7551286 4.0566077e-39
1.1826352 -1.4740571 3.7563388 4.0566077e-39
1.1830167 -1.423686 3.75755 4.0566077e-39
1.1833981 -1.3732831 3.7587619 4.0566077e-39
1.1837546 -1.3262109 3.7598937 4.0566077e-39
1.1841365 -1.2757444 3.761107 4.0566077e-39
1.1845188 -1.2252461 3.7623212 4.0566077e-39
1.1849012 -1.1747143 3.763536 4.0566077e-39
1.1852839 -1.1241506 3.7647519 4.0566077e-39
1.1856414 -1.0769281 3.765887 4.0566077e-39
1.1860248 -1.0263007 3.7671049 4.0566077e-39
1.1864082 -0.97564113 3.7683227 4.0566077e-39
1.186792 -0.92494804 3.7695415 4.0566077e-39
1.187176 -0.87422305 3.7707615 4.0566077e-39
1.1875349 -0.82684982 3.7719009 4.0566077e-39
1.1879195 -0.77606046 3.7731228 4.0566077e-39
1.1883043 -0.72523898 3.7743454 4.0566077e-39
1.1886895 -0.67438382 3.7755687 4.0566077e-39
1.1890749 -0.62349659 3.7767925 4.0566077e-39
1.1894348 -0.57597154 3.7779362 4.0566077e-39
1.1898205 -0.52501959 3.7791612 4.0566077e-39
1.1902068 -0.47403529 3.7803879 4.0566077e-39
1.1905674 -0.42641982 3.7815335 4.0566077e-39
1.190954 -0.37537071 3.7827613 4.0566077e-39
1.1913408 -0.32428929 3.7839901 4.0566077e-39
1.1917021 -0.27658299 3.7851374 4.0566077e-39
1.1920893 -0.22543657 3.7863674 4.0566077e-39
1.1924771 -0.17425765 3.7875993 4.0566077e-39
1.192839 -0.12646027 3.7887485 4.0566077e-39
1.1932271 -0.075216196 3.7899811 4.0566077e-39
1.1936156 -0.023939522 3.7912147 4.0566077e-39
1.1939782 0.023949172 3.7923665 4.0566077e-39
1.1943669 0.075291164 3.7936018 4.0566077e-39
1.1947559 0.12666586 3.7948375 4.0566077e-39
1.1951193 0.17464614 3.7959917 4.0566077e-39
1.1954831 0.22265562 3.7971463 4.0566077e-39
1.1958728 0.27412713 3.7983844 4.0566077e-39
0.17481576 0.3256382 3.7997155 8.7585848e-39
0.22277471 0.32559457 3.799207 9.1273674e-39
0.27414468 0.32554764 3.7986593 1.3276171e-38
0.32550001 0.32550055 3.7981093 1.4290323e-38
0.37341836 0.32545683 3.7975996 1.4290323e-38
0.42474484 0.32540989 3.7970517 1.4290323e-38
0.47605696 0.32536307 3.7965047 1.4290323e-38
0.52393484 0.32531932 3.7959952 1.4290323e-38
0.57521796 0.32527247 3.7954483 1.4290323e-38
0.62648642 0.3252255 3.7949002 1.4290323e-38
0.67432368 0.32518172 3.7943897 1.4290323e-38
0.72556359 0.32513493 3.7938437 1.4290323e-38
0.77678931 0.32508826 3.7932987 1.4290323e-38
0.82458627 0.3250446 3.7927895 1.4290323e-38
0.87578219 0.32499754 3.7922401 1.4290323e-38
0.92696464 0.32495087 3.7916961 1.4290323e-38
0.97472137 0.3249073 3.7911873 1.4290323e-38
1.0258743 0.32486042 3.7906401 1.4290323e-38
1.0770136 0.32481378 3.790096 1.4290323e-38
1.12473 0.32477024 3.7895877 9.4961499e-39
1.1795509 0.32087642 3.7921433 4.0566077e-39
1.1953633 -1.6259681 3.8186493 4.0566077e-39
1.195755 -1.5748116 3.8199008 4.0566077e-39
1.196121 -1.527035 3.82107 4.0566077e-39
1.1965133 -1.4758129 3.8223231 4.0566077e-39
1.1969057 -1.424558 3.8235772 4.0566077e-39
1.1972724 -1.3766896 3.8247483 4.0566077e-39
1.1976656 -1.3253689 3.8260038 4.0566077e-39
1.1980587 -1.2740151 3.8272603 4.0566077e-39
1.1984261 -1.2260542 3.828434 4.0566077e-39
1.1988198 -1.1746346 3.8296916 4.0566077e-39
1.199214 -1.1231819 3.8309505 4.0566077e-39
1.199582 -1.0751284 3.8321266 4.0566077e-39
1.1998713 -1.0373523 3.8330507 4.0566077e-39
1.2000555 -1.0133032 3.8336391 4.0566077e-39
1.2003448 -0.97549486 3.8345635 4.0566077e-39
1.2007401 -0.92391121 3.8358262 4.0566077e-39
1.2011093 -0.87573558 3.8370056 4.0566077e-39
1.2014787 -0.82753026 3.8381851 4.0566077e-39
1.2018746 -0.77584827 3.8394504 4.0566077e-39
1.2022707 -0.72413313 3.8407161 4.0566077e-39
1.2026409 -0.67583448 3.8418984 4.0566077e-39
1.2030113 -0.62750614 3.8430817 4.0566077e-39
1.2034082 -0.57569224 3.8443496 4.0566077e-39
1.2038056 -0.52384502 3.845619 4.0566077e-39
1.2041765 -0.47542295 3.8468039 4.0566077e-39
1.2045479 -0.42697102 3.84799 4.0566077e-39
1.2049458 -0.37502477 3.8492615 4.0566077e-39
-0.22305445 0.32600191 3.8039601 7.3756504e-39
-0.17498851 0.32595801 3.8034472 7.3756504e-39
-0.12693557 0.32591429 3.802937 7.3756504e-39
-0.075464696 0.32586724 3.8023884 7.3756504e-39
-0.024008317 0.32581997 3.8018367 7.3756504e-39
0.024004042 0.32577619 3.8013268 7.3756504e-39
0.075431354 0.32572925 3.8007782 7.3756504e-39
0.12684414 0.32568222 3.8002295 7.3756504e-39
-0.24929602 -1.6678257 3.8922107 1.6410822e-38
1.2094338 -1.6651618 3.8859963 4.0566077e-39
-0.24927123 -1.6255295 3.8918235 1.6410822e-38
1.2097566 -1.6235273 3.8870337 4.0566077e-39
-0.24924231 -1.5761946 3.8913722 1.6410822e-38
1.2101333 -1.574926 3.8882439 4.0566077e-39
-0.24921335 -1.526871 3.8909204 1.6410822e-38
1.2105103 -1.5262944 3.8894551 4.0566077e-39
-0.24918446 -1.477559 3.8904691 1.6410822e-38
1.2108873 -1.4776324 3.890667 4.0566077e-39
-0.24915348 -1.4247373 3.8899853 1.6410822e-38
1.2112918 -1.4254606 3.8919661 4.0566077e-39
-0.2491225 -1.3719285 3.889502 1.6410822e-38
1.2116965 -1.3732548 3.8932667 4.0566077e-39
-0.24909361 -1.3226525 3.8890507 1.6410822e-38
1.2120744 -1.3244973 3.8944802 4.0566077e-39
-0.24906471 -1.2733877 3.8885996 1.6410822e-38
1.2124527 -1.2757097 3.8956959 4.0566077e-39
-0.24903582 -1.2241343 3.8881488 1.6410822e-38
1.2128309 -1.2268914 3.8969116 4.0566077e-39
-0.24900697 -1.1748924 3.8876979 1.6410822e-38
1.2132366 -1.1745521 3.8982148 4.0566077e-39
-0.24897809 -1.125662 3.8872471 1.6410822e-38
1.2136155 -1.1256714 3.8994322 4.0566077e-39
-0.24894924 -1.0764428 3.8867967 1.6410822e-38
-0.24892037 -1.0272352 3.8863463 1.6410822e-38
-0.24889152 -0.97803897 3.8858955 1.6410822e-38
-0.24886061 -0.92534155 3.8854132 1.6410822e-38
-0.24882974 -0.87265688 3.8849308 1.6410822e-38
-0.24880089 -0.8234964 3.8844807 1.6410822e-38
-0.24877207 -0.77434731 3.8840311 1.6410822e-38
-0.24874327 -0.72520971 3.8835809 1.6410822e-38
-0.24871446 -0.67608345 3.883131 1.6410822e-38
-0.24868567 -0.6269685 3.8826814 1.6410822e-38
-0.24865687 -0.577865 3.8822322 1.6410822e-38
-0.24862601 -0.52526683 3.8817503 1.6410822e-38
-0.24859516 -0.47268146 3.881269 1.6410822e-38
-0.2485664 -0.42361364 3.8808193 1.6410822e-38
-0.24853763 -0.3745572 3.8803706 1.6410822e-38
-0.24850886 -0.32551211 3.8799214 1.6410822e-38
1.2053441 -0.32304493 3.8505342 4.0566077e-39
-0.24848011 -0.27647835 3.8794725 1.6410822e-38
1.2057161 -0.27449897 3.8517222 4.0566077e-39
-0.24845138 -0.22745594 3.8790238 1.6410822e-38
1.2060883 -0.22592309 3.852911 4.0566077e-39
-0.24842057 -0.17494467 3.8785427 1.6410822e-38
1.2064607 -0.17731722 3.8541009 4.0566077e-39
-0.2483898 -0.12244613 3.8780625 1.456691e-38
1.2068601 -0.12520577 3.8553767 4.0566077e-39
-0.24836107 -0.073459372 3.8776138 9.219563e-39
1.2072594 -0.073060594 3.856653 4.0566077e-39
-0.24833235 -0.024483932 3.8771653 9.219563e-39
1.2076327 -0.02436024 3.8578448 4.0566077e-39
-0.24830365 0.024480181 3.8767169 8.4819979e-39
1.2080061 0.024370229 3.8590376 4.0566077e-39
-0.24827494 0.073432967 3.8762689 9.219563e-39
1.2083797 0.073130839 3.8602309 4.0566077e-39
-0.24824622 0.12237444 3.8758209 9.219563e-39
1.2087803 0.1254082 3.8615108 4.0566077e-39
-0.2482155 0.17479904 3.8753409 9.957128e-39
1.2091811 0.17771949 3.8627911 4.0566077e-39
-0.24818476 0.22721092 3.874861 1.2630801e-38
1.2095555 0.226575 3.8639872 4.0566077e-39
-0.24815607 0.27611685 3.874413 7.3756504e-39
1.2099301 0.27546081 3.8651841 4.0566077e-39
-0.23107661 0.32229185 3.8869874 7.3756504e-39
-0.17212184 0.32667914 3.8938375 7.3756504e-39
-0.12292746 0.32663435 3.8933036 7.3756504e-39
-0.073746458 0.32658902 3.8927631 7.3756504e-39
-0.024579138 0.32654405 3.8922274 1.1524454e-38
0.024574636 0.32649904 3.8916912 1.4290323e-38
0.073714875 0.32645401 3.8911545 1.4290323e-38
0.12284148 0.32640886 3.8906157 1.4290323e-38
0.17195472 0.32636407 3.8900821 1.4290323e-38
0.22456069 0.32631579 3.8895066 1.4290323e-38
0.27715155 0.32626766 3.8889334 1.4290323e-38
0.32622221 0.32622281 3.8883977 1.4290323e-38
0.37527922 0.32617778 3.8878615 1.4290323e-38
0.42432275 0.32613277 3.887325 1.4290323e-38
0.47335294 0.32608795 3.8867912 1.4290323e-38
0.52236921 0.32604286 3.8862536 1.4290323e-38
0.57487196 0.32599485 3.8856816 1.4290323e-38
0.62735969 0.32594696 3.8851101 1.4290323e-38
0.67633331 0.32590181 3.8845723 1.4290323e-38
0.72529429 0.32585707 3.8840392 1.4290323e-38
0.77424145 0.32581225 3.8835046 1.4290323e-38
0.82317531 0.32576749 3.8829708 1.4290323e-38
0.87209564 0.32572266 3.8824368 1.4290323e-38
0.92449528 0.32567471 3.8818655 1.4290323e-38
0.97687966 0.32562676 3.8812938 1.4290323e-38
1.0257577 0.32558197 3.8807597 1.4290323e-38
1.074622 0.32553715 3.8802257 1.4290323e-38
1.1234734 0.32549244 3.8796926 1.3460562e-38
1.1723115 0.32544783 3.8791611 4.0566077e-39
1.2080495 0.31773394 3.8703549 4.0566077e-39
1.213805 -1.1012201 3.9000411 4.0566077e-39
1.2140217 -1.0732642 3.9007375 4.0566077e-39
1.214401 -1.0243195 3.9019563 4.0566077e-39
1.2147806 -0.97534436 3.9031758 4.0566077e-39
1.2151605 -0.92633849 3.9043965 4.0566077e-39
1.2155408 -0.87730211 3.9056187 4.0566077e-39
1.2159486 -0.82472861 3.9069285 4.0566077e-39
1.2163564 -0.77212059 3.9082391 4.0566077e-39
1.2167375 -0.72298759 3.9094634 4.0566077e-39
1.2171186 -0.67382389 3.9106884 4.0566077e-39
1.2175001 -0.6246292 3.9119141 4.0566077e-39
1.2178819 -0.57540375 3.9131405 4.0566077e-39
1.2182637 -0.52614743 3.9143677 4.0566077e-39
1.2186459 -0.47686026 3.9155958 4.0566077e-39
1.2190285 -0.42754203 3.9168243 4.0566077e-39
1.219411 -0.37819287 3.9180539 4.0566077e-39
1.2198215 -0.325284 3.9193721 4.0566077e-39
1.2202319 -0.27234033 3.9206913 4.0566077e-39
1.2206153 -0.2228937 3.9219232 4.0566077e-39
1.220999 -0.17341597 3.9231563 4.0566077e-39
1.2213829 -0.12390714 3.9243896 4.0566077e-39
1.2217671 -0.074367158 3.9256237 4.0566077e-39
1.2221514 -0.024796003 3.9268589 4.0566077e-39
1.2225361 0.024806354 3.9280949 4.0566077e-39
1.222921 0.074439943 3.9293313 4.0566077e-39
1.2233061 0.12410479 3.9305687 4.0566077e-39
1.2236913 0.17380092 3.931807 4.0566077e-39
1.2240771 0.22352839 3.9330461 4.0566077e-39
1.2244629 0.27328724 3.9342859 4.0566077e-39
1.2247661 0.31240451 3.9352603 4.0566077e-39
1.2240099 -1.7057629 3.9557621 4.0566077e-39
1.2242593 -1.6739857 3.956568 4.0566077e-39
1.2246473 -1.6245307 3.9578221 4.0566077e-39
1.2250355 -1.5750444 3.9590764 4.0566077e-39
1.2254241 -1.5255268 3.9603326 4.0566077e-39
1.2258129 -1.4759773 3.9615893 4.0566077e-39
1.2262019 -1.4263967 3.9628463 4.0566077e-39
1.2265911 -1.3767846 3.9641044 4.0566077e-39
1.2269806 -1.327141 3.9653633 4.0566077e-39
1.2273704 -1.2774658 3.9666228 4.0566077e-39
1.2277604 -1.2277591 3.9678833 4.0566077e-39
1.2281507 -1.1780207 3.9691446 4.0566077e-39
1.2285413 -1.1282508 3.9704063 4.0566077e-39
1.228932 -1.0784492 3.971669 4.0566077e-39
1.2293507 -1.0250546 3.9730229 4.0566077e-39
1.2297703 -0.97162479 3.9743786 4.0566077e-39
1.2301619 -0.92172348 3.9756446 4.0566077e-39
1.2305539 -0.87179047 3.9769113 4.0566077e-39
1.2309462 -0.82182568 3.9781787 4.0566077e-39
1.2313386 -0.77182895 3.9794469 4.0566077e-39
1.2317313 -0.72180039 3.9807165 4.0566077e-39
1.2321242 -0.67173994 3.9819863 4.0566077e-39
1.2325175 -0.62164742 3.9832573 4.0566077e-39
1.232911 -0.57152301 3.9845288 4.0566077e-39
1.2332765 -0.52495056 3.9857101 4.0566077e-39
1.2336425 -0.47834983 3.9868927 4.0566077e-39
1.2340364 -0.42813379 3.9881663 4.0566077e-39
1.234431 -0.37788567 3.9894412 4.0566077e-39
1.2348257 -0.32760549 3.9907169 4.0566077e-39
1.2352206 -0.27729312 3.991993 4.0566077e-39
1.2356157 -0.22694851 3.9932704 4.0566077e-39
1.2360113 -0.17657173 3.9945483 4.0566077e-39
1.2364069 -0.12616265 3.9958272 4.0566077e-39
1.2368031 -0.075721316 3.997107 4.0566077e-39
1.2371991 -0.025247643 3.9983869 4.0566077e-39
1.2375391 0.018040586 3.9994855 4.0566077e-39
-0.22672328 0.32748833 3.9892735 7.3756504e-39
-0.17631547 0.32744193 3.988708 7.3756504e-39
-0.12592205 0.32739577 3.9881461 7.3756504e-39
-0.075542755 0.32734942 3.9875813 7.3756504e-39
-0.025177741 0.32730314 3.9870179 9.0351717e-39
0.025173036 0.32725695 3.9864552 1.4290323e-38
0.075509623 0.32721087 3.9858935 1.4290323e-38
0.12583198 0.32716465 3.9853306 1.4290323e-38
0.17614006 0.32711831 3.9847662 1.4290323e-38
0.22643398 0.32707214 3.9842036 1.4290323e-38
0.2767137 0.32702598 3.9836414 1.4290323e-38
0.32697925 0.32697985 3.9830792 1.4290323e-38
0.37723061 0.32693371 3.9825172 1.4290323e-38
0.42746779 0.32688755 3.9819553 1.4290323e-38
0.47769091 0.32684153 3.9813945 1.4290323e-38
0.52789938 0.32679519 3.98083 1.4290323e-38
0.57809436 0.32674927 3.9802706 1.4290323e-38
0.62827462 0.3267031 3.9797084 1.4290323e-38
0.67844105 0.32665712 3.9791477 1.4290323e-38
0.72501141 0.32661426 3.9786263 1.4290323e-38
0.77156961 0.32657152 3.9781058 1.4290323e-38
0.8216958 0.32652563 3.9775465 1.4290323e-38
0.87180728 0.32647943 3.976984 1.4290323e-38
0.9219051 0.32643351 3.9764247 1.4290323e-38
0.97198874 0.32638758 3.9758644 1.4290323e-38
1.0220586 0.32634166 3.9753053 1.4290323e-38
1.0721139 0.3262957 3.9747455 1.4290323e-38
1.122155 0.32624966 3.9741852 1.4290323e-38
1.1721824 0.32620385 3.9736266 7.467846e-39
1.2150519 0.32616442 3.9731464 4.0566077e-39
1.2393187 -1.7226882 4.028728 4.0566077e-39
1.2396901 -1.6759433 4.0299354 4.0566077e-39
1.2400904 -1.6255714 4.0312362 4.0566077e-39
1.2404908 -1.5751673 4.0325384 4.0566077e-39
1.2408915 -1.5247304 4.0338411 4.0566077e-39
1.2412924 -1.4742609 4.0351443 4.0566077e-39
1.2416937 -1.4237589 4.036449 4.0566077e-39
1.2420951 -1.3732241 4.0377545 4.0566077e-39
1.2424971 -1.3226568 4.0390601 4.0566077e-39
1.2428991 -1.2720567 4.0403676 4.0566077e-39
1.2432727 -1.2250417 4.0415816 4.0566077e-39
1.2436464 -1.1779979 4.0427971 4.0566077e-39
1.2440492 -1.1273042 4.044106 4.0566077e-39
1.2444521 -1.0765774 4.0454164 4.0566077e-39
1.2448555 -1.025818 4.0467272 4.0566077e-39
1.2452593 -0.97502571 4.0480394 4.0566077e-39
1.2456633 -0.92420048 4.0493531 4.0566077e-39
1.2377372 0.043302841 4.0001264 4.0566077e-39
1.2379923 0.075796768 4.0009503 4.0566077e-39
1.2383893 0.12636757 4.002234 4.0566077e-39
1.2387865 0.17697082 4.0035172 4.0566077e-39
1.239184 0.22760653 4.0048018 4.0566077e-39
1.2395818 0.27827477 4.0060873 4.0566077e-39
1.239866 0.31448519 4.0070062 4.0566077e-39
1.2460676 -0.87334216 4.0506673 4.0566077e-39
1.246472 -0.82245082 4.0519824 4.0566077e-39
1.2468477 -0.77516538 4.0532041 4.0566077e-39
1.247224 -0.72785079 4.0544267 4.0566077e-39
1.2476293 -0.67686498 4.0557437 4.0566077e-39
1.2480348 -0.62584603 4.0570626 4.0566077e-39
1.2484406 -0.57479388 4.0583816 4.0566077e-39
1.2488468 -0.52370858 4.0597014 4.0566077e-39
1.249253 -0.47258997 4.0610223 4.0566077e-39
1.2496306 -0.42509332 4.0622497 4.0566077e-39
1.2498921 -0.39219463 4.0630999 4.0566077e-39
1.2500956 -0.36659652 4.0637617 4.0566077e-39
1.2504154 -0.32635337 4.0648012 4.0566077e-39
1.2508228 -0.27510625 4.0661254 4.0566077e-39
1.2512305 -0.22382578 4.0674505 4.0566077e-39
1.2516383 -0.17251183 4.0687766 4.0566077e-39
1.2520171 -0.12483358 4.0700083 4.0566077e-39
1.2523966 -0.077125683 4.0712409 4.0566077e-39
1.2528051 -0.025716037 4.0725698 4.0566077e-39
1.2532141 0.025727171 4.0738988 4.0566077e-39
1.2536232 0.077203982 4.0752292 4.0566077e-39
1.2540035 0.1250336 4.0764651 4.0566077e-39
1.2543839 0.17289297 4.077702 4.0566077e-39
1.2547939 0.22446597 4.0790343 4.0566077e-39
1.2552041 0.27607265 4.080368 4.0566077e-39
-0.25453323 0.32831097 4.0891662 7.3756504e-39
-0.22500396 0.32828358 4.0888247 7.3756504e-39
-0.1733387 0.32823595 4.088232 7.3756504e-39
-0.12537709 0.32819179 4.0876818 7.3756504e-39
-0.077428721 0.32814771 4.0871325 7.3756504e-39
-0.025806248 0.3281002 4.0865412 7.3756504e-39
0.025801284 0.32805273 4.0859494 1.3368366e-38
0.077393882 0.32800516 4.0853577 1.4290323e-38
0.12528811 0.32796121 4.0848098 1.4290323e-38
0.17316906 0.32791704 4.08426 1.4290323e-38
0.22471905 0.32786965 4.0836692 1.4290323e-38
0.27625409 0.32782224 4.0830793 1.4290323e-38
0.32777426 0.32777482 4.0824885 1.4290323e-38
0.3756012 0.32773083 4.0819407 1.4290323e-38
0.42341509 0.32768694 4.0813932 1.4290323e-38
0.47489232 0.32763931 4.0808001 1.4290323e-38
0.52635521 0.3275921 4.0802126 1.4290323e-38
0.57780308 0.32754475 4.0796232 1.4290323e-38
0.62556273 0.3275007 4.0790744 1.4290323e-38
0.67330933 0.32745671 4.078526 1.4290323e-38
0.72471476 0.32740945 4.0779376 1.4290323e-38
0.77610546 0.32736227 4.0773501 1.4290323e-38
0.82748073 0.32731482 4.0767589 1.4290323e-38
0.87517375 0.32727101 4.0762134 1.4290323e-38
0.92285347 0.32722715 4.0756674 1.4290323e-38
0.97418684 0.32717994 4.075079 1.4290323e-38
1.0255053 0.3271327 4.0744905 1.4290323e-38
1.0768088 0.32708547 4.0739026 1.4290323e-38
1.1244349 0.32704169 4.0733571 1.4290323e-38
1.1720476 0.32699779 4.0728102 1.1155671e-38
1.2233089 0.32695061 4.0722227 4.0566077e-39
1.2547719 0.31644651 4.0789633 4.0566077e-39
1.2550259 -1.762219 4.1038585 4.0566077e-39
1.2553207 -1.7256021 4.1048222 4.0566077e-39
1.2557039 -1.6779748 4.1060758 4.0566077e-39
1.256117 -1.6266515 4.1074262 4.0566077e-39
1.2565304 -1.5752947 4.1087775 4.0566077e-39
1.2569438 -1.523904 4.1101298 4.0566077e-39
1.2573577 -1.4724797 4.1114831 4.0566077e-39
1.2577424 -1.4246982 4.112741 4.0566077e-39
1.2581271 -1.376887 4.1139989 4.0566077e-39
1.2585418 -1.3253657 4.115355 4.0566077e-39
1.2589567 -1.2738101 4.1167116 4.0566077e-39
1.2593719 -1.2222208 4.1180692 4.0566077e-39
1.2597576 -1.1742864 4.1193309 4.0566077e-39
1.2601436 -1.1263217 4.1205931 4.0566077e-39
1.2605597 -1.0746349 4.121953 4.0566077e-39
1.260976 -1.0229143 4.1233144 4.0566077e-39
1.261363 -0.97485775 4.1245804 4.0566077e-39
1.2617502 -0.92677087 4.1258464 4.0566077e-39
1.2621676 -0.87495238 4.1272106 4.0566077e-39
1.2625848 -0.82309967 4.1285758 4.0566077e-39
1.2629728 -0.77492028 4.1298442 4.0566077e-39
1.263361 -0.72671062 4.1311135 4.0566077e-39
1.2637793 -0.67475981 4.1324811 4.0566077e-39
1.2641977 -0.62277454 4.1338501 4.0566077e-39
1.2645867 -0.57447201 4.1351218 4.0566077e-39
1.2649759 -0.52613902 4.1363945 4.0566077e-39
1.2653953 -0.4740552 4.1377654 4.0566077e-39
1.2657849 -0.42566118 4.13904 4.0566077e-39
1.2661749 -0.37723655 4.1403146 4.0566077e-39
1.266595 -0.32505396 4.1416888 4.0566077e-39
1.2670155 -0.27283671 4.1430635 4.0566077e-39
1.267406 -0.22431862 4.144341 4.0566077e-39
1.2677969 -0.17576984 4.1456189 4.0566077e-39
1.2682182 -0.12345345 4.1469965 4.0566077e-39
1.2686096 -0.074843191 4.1482768 4.0566077e-39
1.2689711 -0.029945185 4.1494579 4.0566077e-39
1.2713 -1.8069812 4.1817446 4.0566077e-39
1.2715431 -1.7771405 4.1825447 4.0566077e-39
1.2719694 -1.7248945 4.1839461 4.0566077e-39
1.2723957 -1.6726135 4.1853485 4.0566077e-39
1.2727917 -1.6240358 4.1866517 4.0566077e-39
1.2731882 -1.5754272 4.1879554 4.0566077e-39
1.2736152 -1.5230459 4.1893606 4.0566077e-39
1.2740122 -1.4743751 4.1906662 4.0566077e-39
1.2744093 -1.4256731 4.1919723 4.0566077e-39
1.2748373 -1.3731912 4.1933799 4.0566077e-39
1.2752351 -1.324427 4.1946883 4.0566077e-39
1.2756329 -1.2756313 4.1959972 4.0566077e-39
1.2760618 -1.2230488 4.1974077 4.0566077e-39
1.2764602 -1.1741906 4.1987185 4.0566077e-39
1.2767359 -1.1403484 4.199625 4.0566077e-39
1.2691821 -0.0037439002 4.1501484 4.0566077e-39
1.2694232 0.026213704 4.1509366 4.0566077e-39
1.2698154 0.0749164 4.1522193 4.0566077e-39
1.2702078 0.12364997 4.1535025 4.0566077e-39
1.2706306 0.17616555 4.1548853 4.0566077e-39
1.2710236 0.22496097 4.1561694 4.0566077e-39
1.2714165 0.27378729 4.157455 4.0566077e-39
-0.25726765 0.32915121 4.1938763 7.3756504e-39
-0.22319676 0.32911968 4.1934743 7.3756504e-39
-0.17399377 0.32907429 4.1928954 7.3756504e-39
-0.12480466 0.32902876 4.1923156 7.3756504e-39
-0.075628854 0.32898352 4.1917386 7.3756504e-39
-0.026466932 0.32893819 4.1911616 7.3756504e-39
0.026461702 0.32888919 4.1905375 1.0879084e-38
0.075595804 0.32884374 4.1899586 1.4290323e-38
0.12471608 0.32879862 4.1893835 1.4290323e-38
0.17382324 0.3287535 4.1888089 1.4290323e-38
0.22291626 0.32870799 4.1882286 1.4290323e-38
0.27577093 0.3286593 4.1876082 1.4290323e-38
0.32483634 0.32861403 4.1870313 1.4290323e-38
0.37388793 0.32856873 4.1864548 1.4290323e-38
0.4266977 0.32851991 4.1858325 1.4290323e-38
0.47572136 0.32847455 4.1852551 1.4290323e-38
0.52473158 0.32842955 4.1846814 1.4290323e-38
0.5737285 0.32838437 4.1841049 1.4290323e-38
0.6227116 0.32833916 4.1835299 1.4290323e-38
0.67544752 0.32829046 4.1829085 1.4290323e-38
0.72440267 0.32824519 4.1823316 1.4290323e-38
0.7733444 0.3282001 4.1817579 1.4290323e-38
0.82603604 0.32815152 4.1811385 1.4290323e-38
0.87495011 0.32810643 4.1805639 1.4290323e-38
0.92385036 0.32806137 4.1799898 1.4290323e-38
0.97649688 0.3280127 4.1793699 1.4290323e-38
1.0253693 0.32796749 4.1787934 1.4290323e-38
1.0742282 0.32792243 4.1782198 1.4290323e-38
1.1268305 0.32787392 4.1776013 1.4290323e-38
1.1756612 0.32782876 4.1770263 1.4290323e-38
1.224479 0.32778379 4.1764531 4.7019771e-39
1.2675809 0.32053491 4.1660304 4.0566077e-39
1.2769507 -1.1140158 4.2003317 4.0566077e-39
1.2772884 -1.0726177 4.2014427 4.0566077e-39
1.2776878 -1.0236657 4.2027564 4.0566077e-39
1.2780875 -0.97468239 4.204071 4.0566077e-39
1.2784874 -0.92566937 4.2053866 4.0566077e-39
1.2788875 -0.8766247 4.2067022 4.0566077e-39
1.2793187 -0.8237735 4.2081208 4.0566077e-39
1.2797192 -0.77466577 4.2094388 4.0566077e-39
1.2801201 -0.72552651 4.2107573 4.0566077e-39
1.2805213 -0.67635733 4.2120767 4.0566077e-39
1.2809227 -0.62715656 4.2133975 4.0566077e-39
1.2813553 -0.57413703 4.2148199 4.0566077e-39
1.2817572 -0.52487284 4.2161422 4.0566077e-39
1.2821594 -0.47557694 4.2174649 4.0566077e-39
1.2825618 -0.42625093 4.2187886 4.0566077e-39
1.2829646 -0.37689313 4.2201133 4.0566077e-39
1.2833985 -0.32370433 4.2215405 4.0566077e-39
1.2838017 -0.27428296 4.222867 4.0566077e-39
1.2842051 -0.22482966 4.2241936 4.0566077e-39
1.2846087 -0.17534612 4.225522 4.0566077e-39
1.2850128 -0.12583064 4.226851 4.0566077e-39
1.285417 -0.076284796 4.2281804 4.0566077e-39
1.2858213 -0.026706981 4.2295108 4.0566077e-39
1.2862574 0.026718989 4.2309446 4.0566077e-39
1.2866623 0.076360859 4.2322769 4.0566077e-39
1.2870675 0.12603481 4.2336097 4.0566077e-39
1.2874731 0.17573924 4.2349434 4.0566077e-39
1.2878789 0.2254758 4.2362781 4.0566077e-39
1.2882849 0.27524295 4.2376137 4.0566077e-39
1.2885975 0.31354642 4.2386417 4.0566077e-39
1.2884548 -1.8230664 4.2634754 4.0566077e-39
1.2888633 -1.7736285 4.2648273 4.0566077e-39
1.2892723 -1.7241602 4.2661805 4.0566077e-39
1.2896814 -1.6746596 4.2675347 4.0566077e-39
1.2900909 -1.6251283 4.268889 4.0566077e-39
1.2905005 -1.5755647 4.2702446 4.0566077e-39
1.2909105 -1.5259706 4.2716012 4.0566077e-39
1.2913207 -1.4763442 4.2729583 4.0566077e-39
1.2917312 -1.4266869 4.2743168 4.0566077e-39
1.2921418 -1.3769972 4.2756753 4.0566077e-39
1.2925844 -1.3234507 4.2771401 4.0566077e-39
1.2929957 -1.2736962 4.278501 4.0566077e-39
1.2934072 -1.2239091 4.2798624 4.0566077e-39
1.2938188 -1.1740912 4.2812247 4.0566077e-39
1.2942311 -1.1242409 4.282589 4.0566077e-39
1.2946436 -1.0743598 4.2839532 4.0566077e-39
1.2950562 -1.0244459 4.2853193 4.0566077e-39
1.2954692 -0.97450113 4.2866859 4.0566077e-39
1.2958825 -0.92452371 4.2880535 4.0566077e-39
1.2962961 -0.87451506 4.2894216 4.0566077e-39
1.2967098 -0.8244738 4.2907915 4.0566077e-39
1.2971239 -0.77440125 4.2921615 4.0566077e-39
1.2975382 -0.72429597 4.2935324 4.0566077e-39
1.297953 -0.67415953 4.2949042 4.0566077e-39
1.2983676 -0.62399012 4.296277 4.0566077e-39
1.2987828 -0.57378954 4.2976508 4.0566077e-39
1.2991983 -0.52355593 4.2990255 4.0566077e-39
1.2994541 -0.49262887 4.2998719 4.0566077e-39
0.089216143 0.32971224 4.2998719 1.4290323e-38
0.12411433 0.32968 4.2994514 1.4290323e-38
0.17451118 0.3296335 4.2988443 1.4290323e-38
0.22489409 0.32958689 4.2982368 1.4290323e-38
0.2752623 0.32954016 4.2976279 1.4290323e-38
0.32561669 0.32949358 4.29702 1.4290323e-38
0.37595659 0.32944709 4.2964144 1.4290323e-38
0.4262825 0.32940051 4.2958064 1.4290323e-38
0.47659376 0.32935387 4.295198 1.4290323e-38
0.52689135 0.32930738 4.2945919 1.4290323e-38
0.57330698 0.3292644 4.2940316 1.4290323e-38
0.62357664 0.32921788 4.2934241 1.4290323e-38
0.67383248 0.32917127 4.2928176 1.4290323e-38
0.72407401 0.32912487 4.292212 1.4290323e-38
0.77430201 0.32907858 4.2916079 1.4290323e-38
0.82451469 0.32903194 4.2909994 1.4290323e-38
0.87471366 0.32898542 4.2903934 1.4290323e-38
0.92489856 0.32893902 4.2897882 1.4290323e-38
0.97507 0.32889283 4.289186 1.4290323e-38
1.0252266 0.32884645 4.2885814 1.4290323e-38
1.075369 0.32880002 4.2879758 1.4290323e-38
1.1254969 0.32875356 4.2873697 1.4290323e-38
1.1756115 0.32870728 4.2867656 1.4290323e-38
1.2257117 0.32866105 4.2861633 9.1273674e-39
1.2757968 0.32861447 4.2855554 4.0566077e-39
1.3060662 -1.8669289 4.3477073 4.0566077e-39
1.3064235 -1.8242836 4.348897 4.0566077e-39
1.3067162 -1.7893771 4.3498716 4.0566077e-39
1.299646 -0.46942359 4.3005066 4.0566077e-39
1.2999018 -0.43847409 4.3013535 4.0566077e-39
1.300094 -0.41525364 4.3019886 4.0566077e-39
1.3004141 -0.37653628 4.3030486 4.0566077e-39
1.3008305 -0.32617727 4.3044262 4.0566077e-39
1.3012472 -0.27578518 4.3058052 4.0566077e-39
1.3016642 -0.22536163 4.3071847 4.0566077e-39
1.3020815 -0.17490493 4.3085656 4.0566077e-39
1.3024989 -0.12441669 4.309947 4.0566077e-39
1.3029166 -0.073895231 4.3113294 4.0566077e-39
1.3033347 -0.023342187 4.3127127 4.0566077e-39
1.3037208 0.023351347 4.3139906 4.0566077e-39
1.3041394 0.073967643 4.3153753 4.0566077e-39
1.3045583 0.12461564 4.316761 4.0566077e-39
1.3049773 0.17529702 4.3181477 4.0566077e-39
1.3053967 0.22601008 4.3195357 4.0566077e-39
1.3057841 0.27285153 4.3208175 4.0566077e-39
-0.26014587 0.33003566 4.3040895 7.3756504e-39
-0.22517927 0.33000338 4.303669 7.3756504e-39
-0.17468356 0.32995653 4.3030577 7.3756504e-39
-0.1242018 0.32990971 4.3024473 7.3756504e-39
-0.073734775 0.32986307 4.3018394 7.3756504e-39
-0.023281647 0.32981646 4.3012309 7.3756504e-39
0.023277612 0.32977328 4.3006673 7.3756504e-39
0.062068015 0.32973745 4.3002009 1.3183975e-38
1.3061069 0.31190664 4.3218861 4.0566077e-39
1.3069112 -1.7660959 4.3505206 4.0566077e-39
1.3072692 -1.7233952 4.3517122 4.0566077e-39
1.3076923 -1.6729026 4.3531203 4.0566077e-39
1.3080832 -1.6262645 4.3544221 4.0566077e-39
1.308507 -1.5757078 4.3558321 4.0566077e-39
1.3089309 -1.5251197 4.3572435 4.0566077e-39
1.3093551 -1.4744976 4.3586559 4.0566077e-39
1.3097796 -1.4238434 4.3600693 4.0566077e-39
1.3101717 -1.3770562 4.3613744 4.0566077e-39
1.3105968 -1.3263382 4.3627896 4.0566077e-39
1.3110222 -1.2755879 4.3642054 4.0566077e-39
1.3114477 -1.2248039 4.365622 4.0566077e-39
1.3118736 -1.173988 4.3670397 4.0566077e-39
1.3122673 -1.1270512 4.36835 4.0566077e-39
1.3126938 -1.0761708 4.3697701 4.0566077e-39
1.3131207 -1.0252582 4.3711915 4.0566077e-39
1.313548 -0.97431171 4.372613 4.0566077e-39
1.3139753 -0.92333287 4.3740363 4.0566077e-39
1.3143702 -0.87624568 4.3753505 4.0566077e-39
1.3147982 -0.82520199 4.3767748 4.0566077e-39
1.3152264 -0.77412605 4.3782005 4.0566077e-39
1.315622 -0.72694916 4.3795176 4.0566077e-39
1.3160508 -0.67580831 4.3809447 4.0566077e-39
1.3164798 -0.62463492 4.3823733 4.0566077e-39
1.3168762 -0.57736796 4.3836923 4.0566077e-39
1.3173057 -0.52612954 4.3851228 4.0566077e-39
1.3177357 -0.47485855 4.3865538 4.0566077e-39
1.3181328 -0.42750135 4.3878756 4.0566077e-39
1.3185632 -0.37616509 4.389308 4.0566077e-39
1.3189939 -0.32479614 4.3907423 4.0566077e-39
1.3193917 -0.27734846 4.3920665 4.0566077e-39
1.3198231 -0.22591403 4.3935018 4.0566077e-39
1.3202546 -0.17444688 4.3949389 4.0566077e-39
1.3206532 -0.12690845 4.3962655 4.0566077e-39
1.3210852 -0.075375631 4.3977041 4.0566077e-39
1.3215176 -0.02380996 4.3991432 4.0566077e-39
1.3217505 0.0039692209 4.3999186 4.0566077e-39
1.3244212 -1.9086069 4.4354482 4.0566077e-39
1.3247236 -1.873022 4.4364605 4.0566077e-39
1.3251272 -1.8255519 4.4378123 4.0566077e-39
1.3255645 -1.7740924 4.4392772 4.0566077e-39
1.3260022 -1.7226001 4.440743 4.0566077e-39
1.3264066 -1.675038 4.4420972 4.0566077e-39
1.3268113 -1.627447 4.4434524 4.0566077e-39
1.3272498 -1.5758569 4.4449215 4.0566077e-39
1.3276887 -1.5242335 4.4463906 4.0566077e-39
1.328094 -1.4765505 4.4477487 4.0566077e-39
1.3285333 -1.4248604 4.4492197 4.0566077e-39
1.3219502 0.027789544 4.4005837 4.0566077e-39
1.3223499 0.075450994 4.4019136 4.0566077e-39
1.3227831 0.12711547 4.4033556 4.0566077e-39
1.3231831 0.1748362 4.4046874 4.0566077e-39
1.3235835 0.2225858 4.4060206 4.0566077e-39
1.3240175 0.2743476 4.4074655 4.0566077e-39
-0.26317942 0.33096778 4.4202518 7.3756504e-39
-0.2232791 0.33093071 4.4197564 7.3756504e-39
-0.1754102 0.33088645 4.4191651 7.3756504e-39
-0.12755407 0.33084199 4.4185719 7.3756504e-39
-0.075724624 0.33079395 4.4179301 7.3756504e-39
-0.023909854 0.33074579 4.4172864 7.3756504e-39
0.023905599 0.33070129 4.4166932 7.3756504e-39
0.075691022 0.33065334 4.4160523 1.1155671e-38
0.12746181 0.33060539 4.4154115 1.4290323e-38
0.17523664 0.33056101 4.4148188 1.4290323e-38
0.22299874 0.33051679 4.414228 1.4290323e-38
0.27472633 0.3304688 4.4135871 1.4290323e-38
0.32643923 0.3304207 4.4129453 1.4290323e-38
0.37416086 0.33037654 4.4123549 1.4290323e-38
0.42584461 0.33032861 4.411715 1.4290323e-38
0.4775137 0.33028066 4.4110751 1.4290323e-38
0.52519476 0.33023643 4.4104838 1.4290323e-38
0.5728628 0.33019206 4.4098916 1.4290323e-38
0.62448889 0.3301442 4.4092526 1.4290323e-38
0.67610008 0.33009616 4.4086108 1.4290323e-38
0.72372842 0.33005217 4.4080234 1.4290323e-38
0.7753107 0.33000436 4.4073844 1.4290323e-38
0.82687813 0.32995638 4.406744 1.4290323e-38
0.87446594 0.32991233 4.4061556 1.4290323e-38
0.92600441 0.32986447 4.4055161 1.4290323e-38
0.97752857 0.32981673 4.4048786 1.4290323e-38
1.0250753 0.32977244 4.4042873 1.4290323e-38
1.07261 0.32972845 4.4036999 1.4290323e-38
1.124091 0.32968065 4.4030609 1.4290323e-38
1.1755577 0.32963288 4.4024234 1.4290323e-38
1.2230521 0.32958889 4.4018359 1.4290323e-38
1.2744901 0.32954124 4.4011993 4.240999e-39
1.3191993 0.32184505 4.4046421 4.0566077e-39
1.3289733 -1.3731374 4.4506927 4.0566077e-39
1.3293794 -1.3253618 4.4520521 4.0566077e-39
1.3297857 -1.2775573 4.4534135 4.0566077e-39
1.3302261 -1.2257354 4.4548888 4.0566077e-39
1.3306671 -1.1738805 4.4563656 4.0566077e-39
1.3310746 -1.1259832 4.4577298 4.0566077e-39
1.3315161 -1.0740612 4.4592085 4.0566077e-39
1.3319579 -1.0221056 4.4606886 4.0566077e-39
1.3323661 -0.97411543 4.4620557 4.0566077e-39
1.3327746 -0.9260959 4.4634233 4.0566077e-39
1.3332174 -0.87404108 4.4649057 4.0566077e-39
1.3336602 -0.82195258 4.4663897 4.0566077e-39
1.3340694 -0.77383965 4.4677596 4.0566077e-39
1.3344789 -0.72569734 4.469131 4.0566077e-39
1.3348886 -0.67752534 4.4705029 4.0566077e-39
1.3353328 -0.62530518 4.4719906 4.0566077e-39
1.3357772 -0.57305121 4.4734788 4.0566077e-39
1.3361877 -0.52478546 4.4748535 4.0566077e-39
1.3365984 -0.47649005 4.4762292 4.0566077e-39
1.3370093 -0.42816493 4.4776058 4.0566077e-39
1.3374548 -0.3757787 4.4790978 4.0566077e-39
1.3379006 -0.32335851 4.4805908 4.0566077e-39
1.3383125 -0.27493915 4.4819694 4.0566077e-39
1.3387246 -0.22648996 4.4833493 4.0566077e-39
1.339137 -0.17801094 4.4847302 4.0566077e-39
1.3395838 -0.12545785 4.4862275 4.0566077e-39
1.340031 -0.072870575 4.4877248 4.0566077e-39
1.3404442 -0.02429687 4.4891086 4.0566077e-39
1.3408575 0.024306789 4.4904928 4.0566077e-39
1.3412713 0.072940432 4.491878 4.0566077e-39
1.3416849 0.12160408 4.4932642 4.0566077e-39
1.3421336 0.1743574 4.4947672 4.0566077e-39
1.3425827 0.22714512 4.4962707 4.0566077e-39
1.3429974 0.27590403 4.4976592 4.0566077e-39
1.3433431 0.31655872 4.498817 4.0566077e-39
1.3434974 -1.9560342 4.5266852 4.0566077e-39
1.3437409 -1.9277973 4.5275059 4.0566077e-39
1.3441935 -1.8753321 4.5290308 4.0566077e-39
1.3446465 -1.8228325 4.5305567 4.0566077e-39
1.3450648 -1.7743396 4.5319662 4.0566077e-39
1.3454833 -1.7258162 4.5333767 4.0566077e-39
1.3459021 -1.6772628 4.5347877 4.0566077e-39
1.3463562 -1.6246287 4.5363173 4.0566077e-39
1.3468103 -1.5719599 4.5378475 4.0566077e-39
1.3472301 -1.5233107 4.5392618 4.0566077e-39
1.3476501 -1.474631 4.5406766 4.0566077e-39
1.3480701 -1.425921 4.5420928 4.0566077e-39
1.3484907 -1.3771807 4.5435095 4.0566077e-39
1.3489112 -1.3284098 4.5449262 4.0566077e-39
1.3493673 -1.27554 4.546463 4.0566077e-39
1.3498238 -1.2226354 4.5480008 4.0566077e-39
1.3502105 -1.1778423 4.5493035 4.0566077e-39
-0.27048254 0.33195552 4.5429115 7.3756504e-39
-0.22537409 0.33191347 4.542336 7.3756504e-39
-0.17207807 0.33186379 4.541656 7.3756504e-39
-0.12289616 0.33181819 4.5410314 7.3756504e-39
-0.073727787 0.33177257 4.5404072 7.3756504e-39
-0.024572903 0.33172682 4.5397816 7.3756504e-39
0.024568418 0.3316811 4.5391555 7.3756504e-39
0.073696204 0.33163539 4.5385303 7.8366285e-39
0.12281042 0.33158961 4.5379033 1.4198127e-38
0.17191108 0.33154383 4.5372777 1.4290323e-38
0.22508799 0.33149433 4.5365996 1.4290323e-38
0.27824947 0.33144489 4.535923 1.4290323e-38
0.32730725 0.33139914 4.5352974 1.4290323e-38
0.37635186 0.33135375 4.5346761 1.4290323e-38
0.42538258 0.33130801 4.5340495 1.4290323e-38
0.47439995 0.33126244 4.5334258 1.4290323e-38
0.52340388 0.3312169 4.5328031 1.4290323e-38
0.57239419 0.33117127 4.5321784 1.4290323e-38
0.62545174 0.33112195 4.5315042 1.4290323e-38
0.6784935 0.33107236 4.5308251 1.4290323e-38
0.72744131 0.33102691 4.5302033 1.4290323e-38
0.77637583 0.33098152 4.529582 1.4290323e-38
0.82529616 0.33093581 4.5289559 1.4290323e-38
0.87420368 0.33089042 4.5283341 1.4290323e-38
0.92309761 0.33084494 4.5277123 1.4290323e-38
