# .PCD v0.7 - Point Cloud Data file format
VERSION 0.7
FIELDS x y z rgb
SIZE 4 4 4 4
TYPE F F F F
COUNT 1 1 1 1
WIDTH 1040
HEIGHT 1
VIEWPOINT 0 0 0 1 0 0 0
POINTS 1040
DATA ascii
-1.4065235 -0.12474345 2.5733464 6.6276078e-39
-1.3989213 -0.12419259 2.5975168 6.7198035e-39
-1.4066784 -0.07575845 2.5724716 6.6279666e-39
-1.3988448 -0.074980155 2.5973744 6.6279666e-39
-1.4064494 -0.025530787 2.572804 7.0900209e-39
-1.3987683 -0.025773196 2.5972326 7.0900209e-39
-1.4063705 0.025528859 2.5726583 6.9056283e-39
-1.3986882 0.025771229 2.5970838 6.9056283e-39
-1.4064413 0.075745225 2.5720387 6.9978225e-39
-1.3986117 0.074967258 2.5969417 6.9974638e-39
-1.406134 0.12470841 2.572633 6.8127138e-39
-1.3985353 0.12415784 2.5967999 6.8130725e-39
-1.4060698 0.17431237 2.572449 6.4435739e-39
-1.3984551 0.17568511 2.5966511 6.5357681e-39
-1.4061275 0.22478242 2.5718718 6.5357681e-39
-1.3983788 0.22486472 2.5965095 6.5361283e-39
-1.4062035 0.27446947 2.5712404 5.9815224e-39
-1.3985628 0.2771852 2.5955153 5.9818811e-39
-1.4065915 0.30851573 2.5684836 5.9826056e-39
-1.3974288 0.31028122 2.5938823 6.2609959e-39
-1.3908868 -0.51624942 2.6261337 7.0893035e-39
-1.3906329 -0.47516 2.6266191 7.0900237e-39
-1.3907045 -0.4251256 2.6259999 7.182218e-39
-1.3905339 -0.37507653 2.6261511 7.0900237e-39
-1.3905131 -0.32506195 2.6258256 7.0896636e-39
-1.3904345 -0.27502996 2.6256835 6.9049122e-39
-1.3903766 -0.22475266 2.6254742 7.1818578e-39
-1.3901858 -0.17499498 2.6256917 6.9974666e-39
-1.3902942 -0.12501247 2.6249559 6.6279666e-39
-1.3899547 -0.075225689 2.6256449 6.6279652e-39
-1.3901407 -0.02555348 2.6246653 6.9978253e-39
-1.3900614 0.025551545 2.6245162 6.9052695e-39
-1.3897226 0.075212695 2.6252062 6.8134326e-39
-1.3899082 0.12497729 2.6242266 6.7208783e-39
-1.3897018 0.17519273 2.6244893 6.4435725e-39
-1.3896269 0.22489981 2.6243386 6.4435739e-39
-1.3896031 0.27512318 2.6240218 5.981521e-39
-1.3887385 0.30878076 2.6254525 6.1669926e-39
-1.3756288 -0.51521885 2.6746435 6.9974652e-39
-1.3754385 -0.47507167 2.6749358 6.9978281e-39
-1.3753065 -0.42527241 2.674964 7.1825781e-39
-1.3753064 -0.37489706 2.6745696 7.2747751e-39
-1.3752429 -0.32510304 2.6743839 7.1818592e-39
-1.375176 -0.27533084 2.6742055 6.9045535e-39
-1.3749576 -0.2249492 2.674504 7.0896622e-39
-1.3751332 -0.1746071 2.6735549 6.8123564e-39
-1.3748925 -0.12543401 2.673934 6.5354122e-39
-1.3748147 -0.0747739 2.6737835 6.6279652e-39
-1.3743421 -0.023434784 2.6748867 6.9978253e-39
-1.373742 0.024144115 2.6764214 6.9052695e-39
-1.3736643 0.074842945 2.6762705 6.813434e-39
-1.3735875 0.12553613 2.6761191 6.628684e-39
-1.3737067 0.17489333 2.6753538 6.3513783e-39
-1.3733764 0.225017 2.6760094 6.4439326e-39
-1.3733584 0.27516004 2.6756785 5.981521e-39
-1.3731951 0.30891496 2.6753397 6.2595456e-39
-1.3597223 -0.51496106 2.7252231 6.997105e-39
-1.3596416 -0.47505218 2.7251663 6.812718e-39
-1.3594836 -0.42531019 2.7252793 7.0903825e-39
-1.3594291 -0.37557045 2.7250628 7.1825781e-39
-1.3593518 -0.3252888 2.7249148 6.9978267e-39
-1.3593394 -0.27503011 2.7245624 6.8127166e-39
-1.3591185 -0.22530529 2.724875 6.9049122e-39
-1.359044 -0.17530987 2.7247198 6.5354136e-39
-1.3591508 -0.12453206 2.7239828 6.5350521e-39
-1.3590357 -0.074014038 2.7239537 6.5357709e-39
-1.3585274 -0.025264217 2.725188 6.9056297e-39
-1.3578584 0.024599705 2.7269239 6.813434e-39
-1.357784 0.073795512 2.7267754 6.8137914e-39
-1.3578894 0.12424243 2.7260468 6.6283239e-39
-1.3575853 0.17522995 2.7266145 6.3513783e-39
-1.3574969 0.22533627 2.7265036 6.3517384e-39
-1.3573976 0.27513221 2.7264292 5.8893267e-39
-1.3578588 0.30890042 2.7243667 6.1677115e-39
-1.350033 -0.5146535 2.7560298 6.9974652e-39
-1.3426365 -0.5136196 2.7795408 6.8130739e-39
-1.3500068 -0.49724013 2.7559767 6.7201636e-39
-1.3429143 -0.47427461 2.7783492 6.6283267e-39
-1.3431394 -0.42471367 2.7772441 6.9978267e-39
-1.3429422 -0.37457901 2.7774801 6.998547e-39
-1.3429304 -0.3247605 2.7771275 6.9052723e-39
-1.342882 -0.2752704 2.776895 6.7201622e-39
-1.3427198 -0.22546689 2.7770205 6.7205209e-39
-1.3426446 -0.17535342 2.7768664 6.4435767e-39
-1.3425699 -0.12524553 2.7767119 6.3510224e-39
-1.3424954 -0.075143233 2.776557 6.5357709e-39
-1.3424213 -0.025046503 2.7764022 6.813434e-39
-1.3423462 0.025044644 2.7762475 6.7212384e-39
-1.3422711 0.075130239 2.7760942 6.7215971e-39
-1.3421962 0.12521024 2.775939 6.5361297e-39
-1.342122 0.17528459 2.775784 6.3513783e-39
-1.3420477 0.22535351 2.77563 6.3517384e-39
-1.3420609 0.27510172 2.7751982 5.6131014e-39
-1.3421403 0.30700245 2.7746961 5.9826e-39
-1.3285675 -0.51383632 2.8242807 6.8127138e-39
-1.3281181 -0.47521785 2.8254068 6.7205209e-39
-1.327925 -0.42494071 2.8256276 6.9056311e-39
-1.3279108 -0.37502766 2.8252828 7.0903839e-39
1.5781107 -0.36517009 2.842669 3.1346514e-39
1.6150051 -0.36608368 2.8310492 3.226847e-39
-1.327867 -0.32512987 2.8250299 6.812718e-39
1.5764599 -0.32423514 2.8428612 2.8580645e-39
1.616541 -0.3261334 2.830246 2.8580645e-39
-1.3278228 -0.27487835 2.8247788 6.8127166e-39
1.5775287 -0.27557147 2.8421354 2.8580645e-39
1.6160275 -0.27572253 2.830004 2.8580645e-39
-1.3275713 -0.22461018 2.8251846 6.6279666e-39
1.5767107 -0.2256147 2.8419936 2.8580645e-39
1.6158296 -0.22463542 2.8296578 2.8580645e-39
-1.3274955 -0.17471464 2.8250344 6.5357709e-39
1.5749456 -0.17388606 2.8421359 2.8580645e-39
1.6156318 -0.17356078 2.8293114 2.8580645e-39
-1.3276043 -0.1255971 2.8243034 6.258468e-39
1.5734525 -0.12428479 2.8422103 2.8580645e-39
1.6154439 -0.12505136 2.8289821 2.8580645e-39
-1.3275295 -0.076096728 2.8241541 6.4435753e-39
1.5499074 -0.074539915 2.8492322 2.8580645e-39
1.5767682 -0.075781524 2.8407764 2.8580645e-39
1.6152565 -0.076553427 2.8286541 2.8580645e-39
-1.3273655 -0.025478402 2.8242786 6.7212384e-39
1.5497258 -0.025700787 2.8488984 2.8580645e-39
1.5759549 -0.02562621 2.8406324 2.8580645e-39
1.6150588 -0.025515031 2.8283076 2.8580645e-39
-1.3272908 0.025476485 2.8241191 6.7212384e-39
1.5477159 0.028877458 2.8490951 2.8580645e-39
1.5757616 0.025622025 2.8402822 2.8580645e-39
1.6148614 0.025510876 2.8279619 2.8580645e-39
-1.3273053 0.076083407 2.8236763 6.6294015e-39
1.5471594 0.074530527 2.8489056 2.8580645e-39
1.5761474 0.075981393 2.8397591 2.8580645e-39
1.6146637 0.07652431 2.8276157 2.8580645e-39
-1.3264465 0.12608734 2.8260155 6.4442942e-39
1.5469781 0.12334661 2.848572 2.8580645e-39
1.5747951 0.12453198 2.8397965 2.8580645e-39
1.6144762 0.12497558 2.8272872 2.8580645e-39
-1.3259369 0.17466828 2.8272548 6.2591841e-39
1.5467873 0.17471969 2.8482208 2.8580645e-39
1.5752001 0.1741707 2.8392704 2.8580645e-39
1.6142886 0.17341539 2.8269589 2.8580645e-39
-1.3258779 0.22471587 2.8270502 6.2595456e-39
1.5448815 0.22812136 2.8483932 2.8580645e-39
1.5750065 0.2253698 2.8389215 2.8580645e-39
1.6140907 0.22439265 2.8266125 2.8580645e-39
-1.326052 0.27474928 2.8261034 5.5209072e-39
1.5442201 0.27492756 2.8482268 2.8580645e-39
1.5753042 0.2758944 2.8384235 2.8580645e-39
1.6138932 0.27535737 2.8262658 2.8580645e-39
-1.3259802 0.30692062 2.8260827 5.9826e-39
1.5440961 0.30830565 2.8479984 2.9502602e-39
1.5732356 0.3090167 2.838809 2.8580645e-39
1.6122036 0.30986592 2.8251619 3.3190427e-39
-1.3126704 -0.51261765 2.8748207 6.7205195e-39
-1.3124239 -0.47466347 2.8753085 6.7208811e-39
-1.3122964 -0.42469862 2.8753226 6.8134354e-39
-1.3123207 -0.3750934 2.8748577 6.9985484e-39
1.399177 -0.36613989 2.8990667 2.8580645e-39
1.4263105 -0.36505896 2.8905075 2.8580645e-39
1.4756279 -0.36591598 2.8749716 3.226847e-39
1.5245442 -0.36630964 2.8595595 2.9502602e-39
1.5509872 -0.36524096 2.8512173 2.8580645e-39
-1.3123298 -0.32513478 2.8744376 6.8134368e-39
1.3990365 -0.32426322 2.8987758 2.8580645e-39
1.4255599 -0.32492191 2.8904223 2.8580645e-39
1.4761933 -0.3253822 2.8744693 2.8580645e-39
1.5243934 -0.32500339 2.8592761 2.8580645e-39
1.5508344 -0.32405546 2.8509359 2.8580645e-39
-1.312134 -0.27488208 2.874666 6.7208797e-39
1.3967289 -0.27337694 2.8990963 2.8580645e-39
1.4266009 -0.27543789 2.8896995 2.8580645e-39
1.4753706 -0.2748546 2.8743241 2.8580645e-39
1.5236249 -0.27427441 2.8591118 2.8580645e-39
1.5506526 -0.27515769 2.8506021 2.8580645e-39
-1.3119482 -0.22493938 2.8748651 6.6283253e-39
1.3964331 -0.22489436 2.8988013 2.8580645e-39
1.4258298 -0.22417523 2.8895319 2.8580645e-39
1.4747969 -0.22505668 2.8741066 2.8580645e-39
1.5246294 -0.22533861 2.8584046 2.8580645e-39
1.5504711 -0.22627158 2.8502681 2.8580645e-39
-1.3121941 -0.17536856 2.8736951 6.6286854e-39
1.3962667 -0.17518754 2.8984561 2.8580645e-39
1.4256603 -0.17462738 2.8891888 2.8580645e-39
1.4753932 -0.17584002 2.8735242 2.8580645e-39
1.5238469 -0.17533611 2.8582511 2.8580645e-39
1.5503469 -0.19282925 2.8500397 2.8580645e-39
-1.3119136 -0.12445658 2.8741889 6.3510224e-39
1.3961005 -0.12549278 2.8981111 2.8580645e-39
1.4254911 -0.1250916 2.888845 2.8580645e-39
1.4748392 -0.12441789 2.8732891 2.8580645e-39
1.5236585 -0.12375148 2.8578982 2.8580645e-39
-1.3118418 -0.07518848 2.8740313 6.4432166e-39
1.3940216 -0.074360088 2.8983567 2.8580645e-39
1.4253218 -0.075567283 2.8885026 2.8580645e-39
1.4746646 -0.075160384 2.8729489 2.8580645e-39
1.5234801 -0.074757844 2.8575618 2.8580645e-39
-1.3117701 -0.025925819 2.8738737 6.6290442e-39
1.3934972 -0.026144987 2.8981366 2.8580645e-39
1.4251529 -0.02605498 2.8881598 2.8580645e-39
1.4744909 -0.025914697 2.8726094 2.8580645e-39
1.523301 -0.025775921 2.8572268 2.8580645e-39
-1.3116946 0.025923828 2.8737085 6.6290442e-39
1.3933227 0.026140632 2.8977733 2.8580645e-39
1.4249744 0.026050655 2.8877997 2.8580645e-39
1.4743071 0.02591042 2.8722534 2.8580645e-39
1.5216179 0.025251787 2.8573496 2.8580645e-39
-1.3116229 0.075175494 2.8735511 6.5372073e-39
1.3931569 0.075799927 2.8974285 2.8580645e-39
1.4248059 0.07553906 2.8874564 2.8580645e-39
1.4741338 0.075132467 2.8719137 2.8580645e-39
1.5207307 0.074748345 2.8572323 2.8580645e-39
-1.3108451 0.12377943 2.8756418 6.3524587e-39
1.3914707 0.12721139 2.897548 2.8580645e-39
1.4246366 0.12501548 2.887114 2.8580645e-39
1.4739598 0.12434266 2.8715756 2.8580645e-39
1.5205519 0.1237071 2.8568974 2.8580645e-39
-1.3106142 0.17537181 2.8759735 6.1677087e-39
1.3905536 0.17512605 2.8974533 2.8580645e-39
1.4244674 0.17448042 2.8867702 2.8580645e-39
1.4737768 0.17613043 2.8712182 2.8580645e-39
1.5203639 0.17523025 2.8565426 2.8580645e-39
-1.3102565 0.22499304 2.8767221 6.1680688e-39
1.3903877 0.22476192 2.8971078 2.8580645e-39
1.4242977 0.22393329 2.8864276 2.8580645e-39
1.4736023 0.225317 2.8708782 2.8580645e-39
1.5192171 0.22511534 2.8565059 2.8580645e-39
-1.3102797 0.27503383 2.8762565 5.5212673e-39
1.3902217 0.27438608 2.8967624 2.8580645e-39
1.4243275 0.27575484 2.886004 2.8580645e-39
1.4734282 0.27449167 2.8705399 2.8580645e-39
1.5172783 0.27453318 2.8567204 2.8580645e-39
-1.3105661 0.30727199 2.8750939 5.9833188e-39
1.3901085 0.30833295 2.8965261 2.8580645e-39
1.4240128 0.30976623 2.88556 2.9502602e-39
1.4747607 0.31066954 2.869324 3.4112383e-39
1.5187125 0.30886737 2.8559933 3.0424558e-39
1.2790555 -1.2624148 2.9440942 2.8580645e-39
1.3204225 -1.2591882 2.9310319 2.9502602e-39
1.2800705 -1.2248106 2.9434736 2.8580645e-39
1.3242608 -1.2248247 2.9295473 3.1346514e-39
1.2770621 -1.1750177 2.9440229 2.8580645e-39
1.3236574 -1.1747304 2.9293368 3.1346514e-39
1.2775731 -1.1250162 2.9434619 2.8580645e-39
1.3239923 -1.1248547 2.9288318 2.9502602e-39
1.2769226 -1.0750215 2.9432669 2.8580645e-39
1.3234298 -1.0750114 2.9286103 2.8580645e-39
1.2768281 -1.0250411 2.9428964 2.8580645e-39
1.3234065 -1.0249308 2.9282172 2.8580645e-39
1.2754462 -0.97479624 2.9429295 2.8580645e-39
1.3233798 -0.97486442 2.927825 2.8580645e-39
1.2757171 -0.92489582 2.9424453 2.8580645e-39
1.3247787 -0.92509848 2.926985 2.8580645e-39
1.2769201 -0.87480479 2.9416647 2.8580645e-39
1.3258349 -0.8748982 2.9262509 2.8580645e-39
1.2761346 -0.82500058 2.9415143 2.8580645e-39
1.3244976 -0.82514173 2.9262738 2.8580645e-39
1.2480708 -0.76640624 2.9498894 2.8580645e-39
1.2760334 -0.77497292 2.9411461 2.8580645e-39
1.3255061 -0.77492768 2.925554 2.8580645e-39
1.2479514 -0.72641987 2.9496074 2.8580645e-39
1.2765615 -0.72497511 2.9405792 2.8580645e-39
1.3242481 -0.72492087 2.9255509 2.8580645e-39
1.2478 -0.67578143 2.9492497 2.8580645e-39
1.2751877 -0.67517811 2.9406137 2.8580645e-39
1.3251108 -0.67473805 2.9248776 2.8580645e-39
1.2476487 -0.62515503 2.9488921 2.8580645e-39
1.2763737 -0.624749 2.9398358 2.8580645e-39
1.3242246 -0.62502509 2.9247591 2.8580645e-39
1.2459193 -0.57019579 2.9489973 2.8580645e-39
1.2751386 -0.57497001 2.9398272 2.8580645e-39
1.324504 -0.57484853 2.9242682 2.8580645e-39
-1.301797 -0.51179653 2.90939 6.7205195e-39
-1.2940415 -0.51131588 2.9340484 6.6286826e-39
1.2449989 -0.52407074 2.9489183 2.8580645e-39
1.2755765 -0.52478641 2.9392879 2.8580645e-39
1.3241354 -0.5249154 2.9239857 2.8580645e-39
-1.3017437 -0.47503293 2.9092722 6.6290456e-39
-1.2942284 -0.47476447 2.9331672 6.6290442e-39
1.2448561 -0.47613156 2.9485795 2.8580645e-39
1.2754817 -0.47483581 2.9389184 2.8580645e-39
1.3237677 -0.47499108 2.923701 2.8580645e-39
-1.3016716 -0.42514405 2.9091103 6.7215999e-39
-1.2938758 -0.42498982 2.9338989 6.7212412e-39
1.2447051 -0.42554098 2.9482222 2.8580645e-39
1.2744812 -0.42508486 2.9388349 2.8580645e-39
1.324046 -0.4248572 2.9232128 2.8580645e-39
-1.3015996 -0.37526065 2.9089491 6.9981882e-39
-1.2940823 -0.37470222 2.9328496 6.8141557e-39
1.2438445 -0.37312627 2.9480746 2.8580645e-39
1.2755769 -0.37474635 2.938087 2.8580645e-39
1.324908 -0.37430236 2.9225368 2.8580645e-39
1.3741233 -0.36713818 2.9069707 3.4112383e-39
-1.3015277 -0.32538292 2.9087882 6.8130767e-39
-1.2937768 -0.32491511 2.9334304 6.7208825e-39
1.2420558 -0.32447806 2.9482493 2.8580645e-39
1.2743769 -0.32548237 2.9380715 2.8580645e-39
1.3262137 -0.3247157 2.9217293 2.8580645e-39
1.3739853 -0.32514718 2.9066782 2.8580645e-39
-1.3014554 -0.27551058 2.9086268 6.7208811e-39
-1.2938908 -0.27465454 2.9326754 6.6290456e-39
1.2419053 -0.27391145 2.9478917 2.8580645e-39
1.2750283 -0.27514979 2.9374645 2.8580645e-39
1.3251283 -0.27477458 2.9216719 2.8580645e-39
1.3718214 -0.27560851 2.9069636 2.8580645e-39
-1.3013831 -0.22564383 2.9084659 6.8130753e-39
-1.2937292 -0.22488593 2.9327989 6.7212398e-39
1.2417626 -0.22601756 2.9475539 2.8580645e-39
1.2744868 -0.22522625 2.9372339 2.8580645e-39
1.3260281 -0.22475404 2.9209878 2.8580645e-39
1.3713785 -0.22550738 2.906702 2.8580645e-39
-1.301311 -0.17578258 2.9083045 6.628684e-39
-1.2936568 -0.17460768 2.9326355 6.6286854e-39
1.241307 -0.17470764 2.9472866 2.8580645e-39
1.2743329 -0.17486067 2.9368811 2.8580645e-39
1.3248104 -0.17457692 2.92097 2.8580645e-39
1.3712147 -0.17566496 2.9063554 2.8580645e-39
-1.3012393 -0.12592691 2.9081435 6.3513811e-39
-1.2935846 -0.12433489 2.9324718 6.2591869e-39
1.2391137 -0.12497572 2.9475803 2.8580645e-39
1.274179 -0.12450702 2.9365253 2.8580645e-39
1.3257099 -0.12459189 2.9202871 2.8580645e-39
1.371051 -0.12583473 2.9060082 2.8580645e-39
-1.301167 -0.076076686 2.9079826 6.351021e-39
-1.2935121 -0.074067838 2.9323077 6.3513811e-39
1.2389634 -0.074444905 2.9472234 2.8580645e-39
1.2740256 -0.074165761 2.9361711 2.8580645e-39
1.3244013 -0.074657887 2.9202995 2.8580645e-39
1.369164 -0.076525427 2.9062083 2.8580645e-39
-1.3012909 -0.029470896 2.9072244 6.5368485e-39
-1.2938489 -0.022810847 2.930835 6.5368485e-39
1.2388134 -0.023926098 2.9468668 2.8580645e-39
1.2738719 -0.023836382 2.9358175 2.8580645e-39
1.3254774 -0.024725555 2.9195616 2.8580645e-39
1.3684446 -0.02621622 2.9060326 2.8580645e-39
-1.302102 0.026198979 2.9042094 6.5368499e-39
-1.294565 0.024251267 2.9281902 6.5368485e-39
1.2386713 0.023922447 2.9465284 2.8580645e-39
1.2737262 0.023832764 2.9354808 2.8580645e-39
1.3253198 0.024721641 2.9192159 2.8580645e-39
1.3682728 0.026211837 2.9056673 2.8580645e-39
-1.3020297 0.075973362 2.9040487 6.5364898e-39
-1.2943009 0.074375242 2.9286382 6.4446529e-39
1.2365609 0.075319715 2.9467821 2.8580645e-39
1.2735724 0.074138261 2.935127 2.8580645e-39
1.3239274 0.074630156 2.9192557 2.8580645e-39
1.3681093 0.07600639 2.9053202 2.8580645e-39
-1.3019578 0.12574215 2.9038882 6.3520986e-39
-1.2944208 0.12461651 2.9278631 6.2599043e-39
1.2360221 0.12493137 2.9465547 2.8580645e-39
1.2734184 0.12443185 2.9347732 2.8580645e-39
1.3250391 0.12500583 2.9185007 2.8580645e-39
1.3666546 0.12495831 2.9053872 2.8580645e-39
-1.3018857 0.17550552 2.9037275 6.1677101e-39
-1.2941564 0.17475027 2.9283113 6.16735e-39
1.2380171 0.1757787 2.9455192 2.8580645e-39
1.2753444 0.17443769 2.9337659 2.8580645e-39
1.3235587 0.17489594 2.9185684 2.8580645e-39
1.3655031 0.17560297 2.905344 2.8580645e-39
-1.3018138 0.22526331 2.9035668 6.1680688e-39
-1.2942765 0.22495936 2.9275372 6.0758746e-39
1.238067 0.22582859 2.945102 2.8580645e-39
1.2754434 0.22492599 2.9333305 2.8580645e-39
1.3247216 0.22499873 2.9177999 2.8580645e-39
1.3653396 0.22537391 2.9049971 2.8580645e-39
-1.3017417 0.27501568 2.9034064 5.5209086e-39
-1.294106 0.27466974 2.9276891 5.4290731e-39
1.2366315 0.27528512 2.9451585 2.8580645e-39
1.2752894 0.27517039 2.932976 2.8580645e-39
1.3232406 0.27487916 2.9178669 2.8580645e-39
1.3651763 0.27513316 2.9046485 2.8580645e-39
-1.3016963 0.30643556 2.9033051 5.9833202e-39
-1.2947177 0.30700856 2.9254911 5.891126e-39
1.2345693 0.30884832 2.9455388 2.8580645e-39
1.2768483 0.31037986 2.9316001 3.0424558e-39
1.3242769 0.31034318 2.9171412 3.3190427e-39
1.3650646 0.30917239 2.9044118 3.1346514e-39
1.1271193 -1.2725785 2.9920578 2.8580645e-39
1.1754177 -1.2693186 2.9768102 2.8580645e-39
1.225256 -1.2660787 2.9610786 2.8580645e-39
1.2566059 -1.2645936 2.9511867 2.8580645e-39
1.1256171 -1.2252192 2.9921522 2.8580645e-39
1.1758765 -1.2248672 2.97631 2.8580645e-39
1.2256676 -1.2249146 2.9606202 2.8580645e-39
1.2563658 -1.2258226 2.9509523 2.8580645e-39
1.1258601 -1.1752585 2.9916756 2.8580645e-39
1.1760713 -1.175052 2.9758503 2.8580645e-39
1.225706 -1.1749907 2.960207 2.8580645e-39
1.2539872 -1.1741159 2.951288 2.8580645e-39
1.1251093 -1.1250832 2.9915111 2.8580645e-39
1.1758779 -1.1249862 2.9755108 2.8580645e-39
1.225742 -1.1250817 2.9597971 2.8580645e-39
1.2538429 -1.1260635 2.9509485 2.8580645e-39
1.1248804 -1.0749059 2.9911814 2.8580645e-39
1.1751735 -1.0749305 2.9753323 2.8580645e-39
1.2252281 -1.0749636 2.959558 2.8580645e-39
1.2536911 -1.0753534 2.9505906 2.8580645e-39
1.0960162 -1.0229487 2.9998622 2.8580645e-39
1.1250781 -1.0249834 2.9907193 2.8580645e-39
1.1754949 -1.0248847 2.9748299 2.8580645e-39
1.2252663 -1.0250785 2.9591475 2.8580645e-39
1.253539 -1.0246556 2.950233 2.8580645e-39
1.0958953 -0.97683549 2.9995313 2.8580645e-39
1.1253209 -0.97507781 2.9902425 2.8580645e-39
1.1758158 -0.97485852 2.9743288 2.8580645e-39
1.2257612 -0.97521353 2.9585912 2.8580645e-39
1.253451 -0.99530935 2.950026 2.8580645e-39
1.0957601 -0.92530906 2.9991617 2.8580645e-39
1.1247607 -0.9251852 2.990021 2.8580645e-39
1.174722 -0.92509615 2.9742756 2.8580645e-39
1.2243303 -0.92511475 2.9586411 2.8580645e-39
1.095625 -0.87379527 2.9987919 2.8580645e-39
1.1242012 -0.87529755 2.9897978 2.8580645e-39
1.1747944 -0.87508774 2.9738524 2.8580645e-39
1.2249187 -0.87503183 2.958055 2.8580645e-39
1.0937541 -0.82128125 2.9989612 2.8580645e-39
1.124586 -0.82493979 2.9892747 2.8580645e-39
1.1754632 -0.82457393 2.9732368 2.8580645e-39
1.2252346 -0.82521063 2.957557 2.8580645e-39
1.0929433 -0.77642351 2.998858 2.8580645e-39
1.1249224 -0.77460176 2.9887652 2.8580645e-39
1.1747156 -0.77511269 2.9730773 2.8580645e-39
1.2223693 -0.77566117 2.9580636 2.8580645e-39
1.0928085 -0.72493345 2.9984879 2.8580645e-39
1.123981 -0.72498429 2.9886646 2.8580645e-39
1.173948 -0.72538453 2.9729209 2.8580645e-39
1.2226495 -0.72444624 2.9575648 2.8580645e-39
1.0949088 -0.67246407 2.997406 2.8580645e-39
1.1256826 -0.67582482 2.9877353 2.8580645e-39
1.1750598 -0.67439735 2.9721622 2.8580645e-39
1.2218837 -0.67498338 2.9574111 2.8580645e-39
1.0939952 -0.62297738 2.997298 2.8580645e-39
1.1264939 -0.62490726 2.9870722 2.8580645e-39
1.1742923 -0.6246928 2.9720063 2.8580645e-39
1.2211483 -0.62525684 2.9572449 2.8580645e-39
1.092416 -0.57595432 2.9974196 2.8580645e-39
1.1266489 -0.57446373 2.9866195 2.8580645e-39
1.1736156 -0.57553238 2.9718256 2.8580645e-39
1.2210368 -0.57529479 2.9568801 2.8580645e-39
-1.2808867 -0.51054907 2.9758728 6.536487e-39
1.0920968 -0.52514827 2.997113 2.8580645e-39
1.1260976 -0.52534378 2.9863994 2.8580645e-39
1.1745269 -0.52459085 2.9711313 2.8580645e-39
1.2190896 -0.52552378 2.9570951 2.8580645e-39
-1.2807705 -0.47484595 2.9759624 6.5368499e-39
1.0923455 -0.47380659 2.9966235 2.8580645e-39
1.1253487 -0.47567669 2.9862382 2.8580645e-39
1.1747122 -0.47382095 2.9706664 2.8580645e-39
1.2193843 -0.4756912 2.9566033 2.8580645e-39
-1.2805619 -0.42457557 2.9762321 6.6294057e-39
1.0920194 -0.42437571 2.9963305 2.8580645e-39
1.1264278 -0.42452177 2.9854889 2.8580645e-39
1.1758727 -0.42572439 2.9699159 2.8580645e-39
1.2213835 -0.4242987 2.9555619 2.8580645e-39
-1.2805614 -0.37507173 2.9758451 6.8137956e-39
1.0894656 -0.37577346 2.9967465 2.8580645e-39
1.1256905 -0.37434047 2.9853201 2.8580645e-39
1.176187 -0.37480259 2.9694095 2.8580645e-39
1.2205461 -0.37645864 2.9554431 2.8580645e-39
-1.2805227 -0.32520017 2.9755783 6.5368499e-39
1.0890316 -0.32539287 2.9964812 2.8580645e-39
1.1255598 -0.32582697 2.9849732 2.8580645e-39
1.1758251 -0.32409626 2.9691184 2.8580645e-39
1.2185117 -0.32529548 2.9556756 2.8580645e-39
-1.2802792 -0.27494144 2.9759598 6.5364912e-39
1.0895102 -0.27411804 2.9959204 2.8580645e-39
1.1250309 -0.27513576 2.9847338 2.8580645e-39
1.1756891 -0.27585188 2.9687755 2.8580645e-39
1.2183639 -0.27460125 2.9553165 2.8580645e-39
-1.2804155 -0.22470812 2.975132 6.6286854e-39
1.0890707 -0.2243015 2.9956603 2.8580645e-39
1.1257032 -0.224021 2.9841132 2.8580645e-39
1.1755455 -0.22493933 2.9684138 2.8580645e-39
1.217791 -0.22538364 2.9551039 2.8580645e-39
-1.2803471 -0.17486025 2.9749606 6.5364912e-39
1.0869815 -0.17494474 2.9959233 2.8580645e-39
1.1251531 -0.17496793 2.9838948 2.8580645e-39
1.1754022 -0.17403896 2.9680505 2.8580645e-39
1.2182884 -0.17518383 2.9545453 2.8580645e-39
-1.2800648 -0.12573576 2.9754736 6.2591869e-39
1.0860031 -0.12559845 2.995837 2.8580645e-39
1.1250228 -0.12650074 2.9835472 2.8580645e-39
1.1752661 -0.12582915 2.9677093 2.8580645e-39
1.2155714 -0.12529041 2.9550018 2.8580645e-39
-1.280198 -0.074784808 2.9746518 6.2591855e-39
1.0866354 -0.074376486 2.9952288 2.8580645e-39
1.1248846 -0.07535322 2.9831824 2.8580645e-39
1.1751232 -0.074953191 2.9673469 2.8580645e-39
1.2154237 -0.074632324 2.954643 2.8580645e-39
-1.2800269 -0.02415264 2.9747989 6.4446543e-39
1.0861225 -0.024316821 2.9949901 2.8580645e-39
1.1247467 -0.024217982 2.982816 2.8580645e-39
1.1749798 -0.024089437 2.9669843 2.8580645e-39
1.2152765 -0.023986327 2.9542847 2.8580645e-39
-1.2799581 0.024150919 2.9746397 6.3524601e-39
1.0845532 0.025234088 2.9950871 2.8580645e-39
1.1246161 0.024214244 2.98247 2.8580645e-39
1.1748443 0.024085738 2.9666429 2.8580645e-39
1.2151366 0.023982659 2.9539447 2.8580645e-39
-1.2799852 0.074771851 2.9741569 6.3521e-39
1.0838718 0.07455834 2.9949081 2.8580645e-39
1.1244783 0.075324826 2.9821036 2.8580645e-39
1.1747013 0.07492514 2.9662797 2.8580645e-39
1.213178 0.073800258 2.9541631 2.8580645e-39
-1.2797071 0.12570019 2.9746423 6.1677101e-39
1.0828633 0.12574825 2.9948151 2.8580645e-39
1.1243403 0.12642312 2.9817386 2.8580645e-39
1.1745577 0.12575236 2.9659193 2.8580645e-39
1.2124846 0.12524574 2.9539704 2.8580645e-39
-1.2798495 0.17479186 2.973805 6.0755145e-39
1.0831746 0.17557822 2.9943182 2.8580645e-39
1.1242099 0.1748203 2.9813924 2.8580645e-39
1.174422 0.17389286 2.9655752 2.8580645e-39
1.2125312 0.17536239 2.9535539 2.8580645e-39
-1.2797767 0.22459552 2.9736478 5.9836804e-39
1.0824487 0.22477056 2.9941518 2.8580645e-39
1.1246893 0.22433375 2.9808447 2.8580645e-39
1.1742786 0.22469573 2.9652135 2.8580645e-39
1.2119861 0.22587903 2.95332 2.8580645e-39
-1.2794975 0.27477321 2.9741426 5.152489e-39
1.0809616 0.27456576 2.9942219 2.8580645e-39
1.1233374 0.27529159 2.9808614 2.8580645e-39
1.1741353 0.27548626 2.9648519 2.8580645e-39
1.2106028 0.27319193 2.9533782 2.8580645e-39
-1.2812625 0.30570537 2.9682868 5.7063774e-39
1.0790505 0.30946076 2.9945447 2.8580645e-39
1.1253796 0.31062493 2.9794061 3.1346514e-39
1.1740371 0.31023097 2.9646041 3.226847e-39
1.2095916 0.30905947 2.9534087 3.0424558e-39
0.9487958 -1.3090632 3.048548 2.8580645e-39
0.97474921 -1.3081067 3.0403609 2.8580645e-39
1.0227432 -1.3049809 3.0252111 2.8580645e-39
1.0626228 -1.3017876 3.0126176 2.8580645e-39
0.94635391 -1.2722154 3.0490227 2.8580645e-39
0.9764114 -1.2748036 3.0395706 2.8580645e-39
1.0258486 -1.275345 3.0239961 2.8580645e-39
1.0748587 -1.2750688 3.008548 2.8580645e-39
1.1015375 -1.2774591 3.0001588 2.8580645e-39
0.94609737 -1.2238774 3.0487165 2.8580645e-39
0.97585726 -1.2247536 3.0393453 2.8580645e-39
1.0257744 -1.2250026 3.0236156 2.8580645e-39
1.0747583 -1.2252557 3.0081801 2.8580645e-39
0.94598496 -1.1742327 3.0483551 2.8580645e-39
0.97579545 -1.1747098 3.0389636 2.8580645e-39
1.0252764 -1.174677 3.02337 2.8580645e-39
1.0746787 -1.1751828 3.0078049 2.8580645e-39
0.94587284 -1.1245999 3.0479934 2.8580645e-39
0.97581607 -1.1249536 3.0385597 2.8580645e-39
1.0252092 -1.1249031 3.0229936 2.8580645e-39
1.0740479 -1.1248535 3.0076008 2.8580645e-39
0.94438815 -1.0726237 3.0480454 2.8580645e-39
0.9756183 -1.0752115 3.0382235 2.8580645e-39
1.0251411 -1.0751415 3.0226166 2.8580645e-39
1.074132 -1.0748005 3.0071735 2.8580645e-39
0.94314295 -1.0256362 3.0480616 2.8580645e-39
0.97555625 -1.025206 3.0378432 2.8580645e-39
1.0251 -1.0251198 3.022229 2.8580645e-39
1.0721393 -1.0249357 3.0074031 2.8580645e-39
0.94303107 -0.97602582 3.0476995 2.8580645e-39
0.97557431 -0.97493958 3.0374351 2.8580645e-39
1.0251907 -0.97483915 3.0217972 2.8580645e-39
1.0719564 -0.97451341 3.007057 2.8580645e-39
0.94291908 -0.9264273 3.0473375 2.8580645e-39
0.97548532 -0.92468524 3.037061 2.8580645e-39
1.0252808 -0.92457438 3.0213668 2.8580645e-39
1.0714183 -0.92496246 3.0068302 2.8580645e-39
0.94211197 -0.87519199 3.0471818 2.8580645e-39
0.9754231 -0.87471873 3.0366797 2.8580645e-39
1.024731 -0.87485701 3.0211425 2.8580645e-39
1.0708797 -0.87541658 3.0066025 2.8580645e-39
0.94011718 -0.82540041 3.0474122 2.8580645e-39
0.97536111 -0.82476521 3.0363004 2.8580645e-39
1.0243661 -0.82542282 3.0208614 2.8580645e-39
1.0697285 -0.82598537 3.0065706 2.8580645e-39
0.94013804 -0.77447379 3.0469975 2.8580645e-39
0.97499907 -0.77508867 3.0360165 2.8580645e-39
1.0241662 -0.77545583 3.0205245 2.8580645e-39
1.068891 -0.77469206 3.0064232 2.8580645e-39
0.94015867 -0.7235617 3.0465837 2.8580645e-39
0.97488421 -0.72570419 3.0356574 2.8580645e-39
1.0242575 -0.72523797 3.0200949 2.8580645e-39
1.0687033 -0.72442782 3.0060806 2.8580645e-39
0.93984234 -0.67328191 3.0462811 2.8580645e-39
0.97433454 -0.67576408 3.0354307 2.8580645e-39
1.0244789 -0.67476803 3.0196192 2.8580645e-39
1.0683435 -0.67518115 3.0057993 2.8580645e-39
0.93745118 -0.62338865 3.0466349 2.8580645e-39
0.97443348 -0.62531179 3.0349953 2.8580645e-39
1.0245439 -0.62430811 3.0191956 2.8580645e-39
1.067245 -0.62667221 3.005758 2.8580645e-39
0.93711334 -0.57436365 3.0463498 2.8580645e-39
0.97453249 -0.57487553 3.0345609 2.8580645e-39
1.0239944 -0.57464886 3.0189714 2.8580645e-39
1.0655073 -0.57523388 3.0058937 2.8580645e-39
-1.2715732 -0.5042913 3.0054388 6.5361311e-39
0.93700212 -0.52483469 3.0459878 2.8580645e-39
0.97463101 -0.5244543 3.0341263 2.8580645e-39
1.023874 -0.52556479 3.0186167 2.8580645e-39
1.065897 -0.52409017 3.0053611 2.8580645e-39
-1.271531 -0.47445208 3.0053391 6.5372087e-39
0.9368909 -0.47531763 3.0456264 2.8580645e-39
0.97472847 -0.47404885 3.0336914 2.8580645e-39
1.0233243 -0.47591984 3.0183926 2.8580645e-39
1.0653951 -0.4744181 3.0051215 2.8580645e-39
-1.2714621 -0.42562824 3.0051761 6.6294043e-39
0.93554926 -0.42474201 3.0456443 2.8580645e-39
0.97418016 -0.42416212 3.0334651 2.8580645e-39
1.0234195 -0.42523474 3.0179563 2.8580645e-39
1.0652704 -0.42557099 3.0047708 2.8580645e-39
-1.2714123 -0.39036965 3.0050585 6.8141557e-39
0.93416172 -0.37641609 3.0456953 2.8580645e-39
0.9740653 -0.37486044 3.0331073 2.8580645e-39
1.0241305 -0.37406626 3.0173233 2.8580645e-39
1.0624874 -0.37634653 3.0052538 2.8580645e-39
0.93405122 -0.32692131 3.0453351 2.8580645e-39
0.97395051 -0.32557037 3.0327508 2.8580645e-39
1.02338 -0.32389665 3.017159 2.8580645e-39
1.0627853 -0.32486111 3.0047486 2.8580645e-39
0.93354183 -0.27600181 3.0450878 2.8580645e-39
0.97383553 -0.27629191 3.0323918 2.8580645e-39
1.0232596 -0.27487171 3.0168054 2.8580645e-39
1.062448 -0.27374557 3.0044465 2.8580645e-39
0.93360609 -0.22321877 3.0446448 2.8580645e-39
0.97328675 -0.22643909 3.0321648 2.8580645e-39
1.0231396 -0.22585823 3.0164506 2.8580645e-39
1.0623237 -0.22493303 3.0040941 2.8580645e-39
0.93119937 -0.17305732 3.0450025 2.8580645e-39
0.97400409 -0.17452285 3.0315247 2.8580645e-39
1.0241662 -0.17625751 3.0157301 2.8580645e-39
1.0613568 -0.17829153 3.0040262 2.8580645e-39
0.93108881 -0.12359787 3.044642 2.8580645e-39
0.97347784 -0.12305541 3.0312784 2.8580645e-39
1.0253453 -0.12511244 3.0149505 2.8580645e-39
1.0620729 -0.124632 3.0033708 2.8580645e-39
0.93097854 -0.074150138 3.044281 2.8580645e-39
0.97336304 -0.073824711 3.030921 2.8580645e-39
1.0252184 -0.073426582 3.0145762 2.8580645e-39
1.0619416 -0.073144652 3.0030007 2.8580645e-39
0.93086839 -0.024714103 3.0439196 2.8580645e-39
0.97324818 -0.024605652 3.0305641 2.8580645e-39
1.025098 -0.024472971 3.0142221 2.8580645e-39
1.0618175 -0.024379017 3.0026495 2.8580645e-39
0.9287504 0.025265593 3.0441873 2.8580645e-39
0.97313344 0.024601797 3.030206 2.8580645e-39
1.0249777 0.02446916 3.0138686 2.8580645e-39
1.0605193 0.022632314 3.0026824 2.8580645e-39
0.92813981 0.074142046 3.0439887 2.8580645e-39
0.97301859 0.073797643 3.0298483 2.8580645e-39
1.0248575 0.073399797 3.0135148 2.8580645e-39
1.0591336 0.073136769 3.0027151 2.8580645e-39
0.92802936 0.12355575 3.0436273 2.8580645e-39
0.97314799 0.12327822 3.0294108 2.8580645e-39
1.0247301 0.12503627 3.0131409 2.8580645e-39
1.0590026 0.1245882 3.0023437 2.8580645e-39
0.92791939 0.17295772 3.0432661 2.8580645e-39
0.97336286 0.17567644 3.0289237 2.8580645e-39
1.0253727 0.17613518 3.0125284 2.8580645e-39
1.0588719 0.17602713 3.0019727 2.8580645e-39
0.92706841 0.22504188 3.0431173 2.8580645e-39
0.97513729 0.22671859 3.0279553 2.8580645e-39
1.0269413 0.22549699 3.0116386 2.8580645e-39
1.058362 0.22324137 3.0017555 2.8580645e-39
0.92464346 0.27631822 3.0434704 2.8580645e-39
0.97502196 0.27585408 3.0275965 2.8580645e-39
1.0268208 0.27436784 3.0112853 2.8580645e-39
1.0561875 0.27352524 3.0020373 2.8580645e-39
0.92510527 0.31020477 3.0430539 2.8580645e-39
0.97542948 0.31109527 3.0268836 3.3190427e-39
1.0267338 0.30965668 3.01103 3.0424558e-39
1.0560982 0.30870578 3.0017838 2.8580645e-39
-1.2653822 -1.3174413 3.095542 9.4039542e-39
-1.2449964 -1.3175784 3.0943816 9.4039542e-39
0.79186368 -1.3188424 3.098083 2.8580645e-39
0.82356191 -1.318698 3.0880926 2.8580645e-39
0.87447673 -1.3151368 3.0720184 2.8580645e-39
0.92274624 -1.3118713 3.0567796 2.8580645e-39
-1.2645193 -1.2754263 3.0949335 9.4039542e-39
-1.2449405 -1.2756493 3.0942423 9.4039542e-39
0.79111987 -1.2763286 3.0979772 2.8580645e-39
0.82441008 -1.2750847 3.0874765 2.8580645e-39
0.87552321 -1.2750818 3.0713677 2.8580645e-39
0.92128384 -1.2754017 3.0569484 2.8580645e-39
-1.2646232 -1.2255335 3.0945661 9.4039542e-39
-1.2448735 -1.2253388 3.0940757 9.4039542e-39
0.79082704 -1.2267636 3.0976727 2.8580645e-39
0.82428229 -1.2250823 3.0871158 2.8580645e-39
0.8754186 -1.2250621 3.0710013 2.8580645e-39
0.92096913 -1.2249892 3.0566449 2.8580645e-39
-1.2648506 -1.1746699 3.0942304 9.4039542e-39
-1.2448068 -1.175034 3.0939097 9.4039542e-39
0.79073167 -1.1763215 3.0972989 2.8580645e-39
0.82421315 -1.1750915 3.0867376 2.8580645e-39
0.87531406 -1.175055 3.0706327 2.8580645e-39
0.92085934 -1.1752156 3.0562809 2.8580645e-39
-1.2674528 -1.125065 3.0946507 9.4039542e-39
-1.2447397 -1.1247345 3.0937431 9.4039542e-39
0.79063636 -1.1258918 3.0969255 2.8580645e-39
0.82414305 -1.1251128 3.0863595 2.8580645e-39
0.87520927 -1.1250591 3.0702658 2.8580645e-39
0.92071468 -1.125107 3.0559261 2.8580645e-39
-1.2672629 -1.0746528 3.0941868 9.4039542e-39
-1.2446727 -1.0744405 3.0935764 9.4039542e-39
0.79245198 -1.078509 3.0959742 2.8580645e-39
0.8240158 -1.0751464 3.0860002 2.8580645e-39
0.87510443 -1.0750756 3.0698988 2.8580645e-39
0.9196049 -1.0757763 3.0558805 2.8580645e-39
-1.2670729 -1.0242559 3.0937235 9.4039542e-39
-1.2446055 -1.0241517 3.09341 9.4039542e-39
0.79564053 -1.0385205 3.0946491 2.8580645e-39
0.82391679 -1.0249127 3.0856285 2.8580645e-39
0.875 -1.0251042 3.0695326 2.8580645e-39
0.91809219 -1.024756 3.0559487 2.8580645e-39
-1.2671865 -0.9743256 3.0933583 9.4039542e-39
-1.2445387 -0.97386837 3.0932436 9.4039542e-39
0.82671571 -0.97592986 3.0843549 2.8580645e-39
0.87489522 -0.97514427 3.069165 2.8580645e-39
0.91790342 -0.97461849 3.0556068 2.8580645e-39
-1.2692715 -0.92393041 3.0936105 9.4039542e-39
-1.2444718 -0.92359054 3.0930772 9.4039542e-39
0.83020312 -0.92660171 3.0828617 2.8580645e-39
0.87479085 -0.92519641 3.0687981 2.8580645e-39
0.91795057 -0.92450678 3.0551915 2.8580645e-39
-1.2699231 -0.87463033 3.0934203 9.4039542e-39
-1.2443347 -0.87469548 3.0931444 9.4039542e-39
0.83370477 -0.87706023 3.0813601 2.8580645e-39
0.87468612 -0.87526077 3.0684314 2.8580645e-39
0.91744035 -0.87468934 3.0549531 2.8580645e-39
-1.2695278 -0.82468367 3.092895 9.4039542e-39
-1.2443416 -0.82584006 3.0927534 9.4039542e-39
0.8376376 -0.82653171 3.0797169 2.8580645e-39
0.87455362 -0.82505864 3.0680714 2.8580645e-39
0.91505748 -0.8241111 3.055299 2.8580645e-39
-1.2694427 -0.77473921 3.0924678 9.4039542e-39
-1.2442746 -0.7755782 3.0925872 9.4039542e-39
0.84100896 -0.7755565 3.0782468 2.8580645e-39
0.87447578 -0.77487016 3.0676942 2.8580645e-39
0.91494864 -0.77440697 3.0549357 2.8580645e-39
-1.2727206 -0.72451669 3.0930963 9.4039542e-39
-1.2456387 -0.72354722 3.0907862 9.4039542e-39
0.84127212 -0.7246623 3.0777562 2.8580645e-39
0.87437165 -0.72497022 3.0673273 2.8580645e-39
0.91483992 -0.72471458 3.0545716 2.8580645e-39
-1.2754728 -0.67454648 3.0935607 9.4039542e-39
-1.2460192 -0.67550796 3.0900025 9.4039542e-39
0.84117126 -0.67460477 3.0773869 2.8580645e-39
0.87426698 -0.67508239 3.0669606 2.8580645e-39
0.91473109 -0.67503411 3.0542088 2.8580645e-39
-1.2751812 -0.62502438 3.0930727 9.4039542e-39
-1.2459124 -0.62527877 3.0897381 9.4039542e-39
0.84107047 -0.62455916 3.0770183 2.8580645e-39
0.87419021 -0.62493026 3.0665834 2.8580645e-39
0.91243619 -0.62598598 3.0545392 2.8580645e-39
-1.2748898 -0.57551843 3.0925839 9.4039542e-39
-1.2458056 -0.5750584 3.0894732 9.4039542e-39
0.84096962 -0.57452559 3.0766497 2.8580645e-39
0.87405711 -0.57478815 3.0662246 2.8580645e-39
0.91199839 -0.57585812 3.0542762 2.8580645e-39
-1.2745986 -0.52602875 3.0920951 9.4039542e-39
-1.2458148 -0.52580714 3.0889649 9.4039542e-39
0.84086883 -0.52450413 3.0762815 2.8580645e-39
0.87403595 -0.52466404 3.06583 2.8580645e-39
0.91189015 -0.52620018 3.0539126 2.8580645e-39
-1.274307 -0.47655508 3.0916071 9.4039542e-39
-1.2455946 -0.47650564 3.0889511 9.4039542e-39
0.84076798 -0.47449443 3.0759125 2.8580645e-39
0.87398618 -0.47427452 3.0654418 2.8580645e-39
0.91178167 -0.47655404 3.0535488 2.8580645e-39
-1.274428 -0.42666414 3.0912452 9.4039542e-39
-1.2454878 -0.42631075 3.0886867 9.4039542e-39
0.84066725 -0.42449683 3.0755434 2.8580645e-39
0.87393636 -0.42389822 3.0650542 2.8580645e-39
0.9106943 -0.42830649 3.0535059 2.8580645e-39
-1.2754016 -0.37569362 3.0911441 9.4039542e-39
-1.245381 -0.37612441 3.0884225 9.4039542e-39
0.84056675 -0.37451133 3.0751765 2.8580645e-39
0.8738867 -0.37353465 3.0646675 2.8580645e-39
0.90884358 -0.3766574 3.0536766 2.8580645e-39
-1.2772561 -0.3262817 3.0913303 9.4039542e-39
-1.2452743 -0.3259466 3.0881581 9.4039542e-39
0.84046638 -0.32453778 3.0748084 3.0417341e-39
0.87353128 -0.32343704 3.0643799 2.8580645e-39
0.90893573 -0.32501405 3.0532343 2.8580645e-39
-1.2770649 -0.27604324 3.0908678 9.4039542e-39
-1.2451675 -0.27577746 3.087894 9.4039542e-39
0.84036565 -0.27457607 3.0744405 3.1339269e-39
0.87342697 -0.27364492 3.0640144 2.8580645e-39
0.90902698 -0.27338651 3.0527923 2.8580645e-39
-1.2768739 -0.22581989 3.090405 9.4039542e-39
-1.2450609 -0.22561686 3.0876298 9.4039542e-39
0.84026521 -0.22462633 3.0740724 3.1339269e-39
0.87332278 -0.22386466 3.0636485 2.8580645e-39
0.90827185 -0.22419301 3.0526373 2.8580645e-39
-1.2766827 -0.17561156 3.0899425 9.4039542e-39
-1.2449541 -0.17546485 3.0873656 9.4039542e-39
0.8401646 -0.17468856 3.0737054 3.1339269e-39
0.8732186 -0.17409632 3.063283 2.8580645e-39
0.90608913 -0.1735073 3.0529194 2.8580645e-39
-1.2764918 -0.12541825 3.0894802 9.4039542e-39
-1.2448474 -0.12532142 3.0871017 9.4039542e-39
0.84006411 -0.12476277 3.0733373 3.1339269e-39
0.87311453 -0.1243398 3.0629177 2.8580645e-39
0.90598142 -0.12391919 3.0525572 2.8580645e-39
-1.2763009 -0.075239927 3.0890181 9.4039542e-39
-1.2447411 -0.07518658 3.0868375 9.4039542e-39
0.83996356 -0.074848905 3.0729694 3.1339269e-39
0.87301034 -0.074595205 3.0625525 2.8580645e-39
0.90587395 -0.074342877 3.0521941 2.8580645e-39
-1.2761099 -0.025076635 3.0885556 9.4039542e-39
-1.2446345 -0.025060283 3.0865743 9.4039542e-39
0.83986306 -0.02494698 3.0726023 3.1339269e-39
0.87290639 -0.024862429 3.0621886 2.8580645e-39
0.90576631 -0.024778338 3.051832 2.8580645e-39
-1.2759187 0.025071656 3.0880942 9.4039542e-39
-1.2445281 0.025057435 3.0863101 9.4039542e-39
0.84209234 0.025569854 3.0714948 3.0417327e-39
0.87503123 0.024582682 3.0611217 2.8580645e-39
0.9039011 0.022853069 3.0520384 2.8580645e-39
-1.2757283 0.075204939 3.0876322 9.4039542e-39
-1.2444214 0.075166591 3.0860462 9.4039542e-39
0.84221137 0.074801505 3.0710633 3.0417341e-39
0.87523586 0.074548043 3.0606582 2.8580645e-39
0.90303433 0.074334711 3.051899 2.8580645e-39
-1.2755376 0.12532324 3.0871704 9.4039542e-39
-1.2443148 0.12526718 3.0857828 9.4039542e-39
0.84211051 0.12465455 3.0706949 3.0417341e-39
0.87513149 0.12423223 3.0602922 2.8580645e-39
0.90292698 0.12387678 3.0515356 2.8580645e-39
-1.2753468 0.17542653 3.086709 9.4039542e-39
-1.2442263 0.17536186 3.0855634 9.4039542e-39
0.84200978 0.1744957 3.0703275 3.0417341e-39
0.87502706 0.17390457 3.059927 2.8580645e-39
0.90281951 0.17340706 3.051173 2.8580645e-39
-1.275156 0.22551492 3.0862472 9.4039542e-39
-1.2441597 0.22545321 3.0853977 9.4039542e-39
0.84190875 0.22432488 3.0699604 3.0417341e-39
0.87492257 0.22356504 3.0595624 2.8580645e-39
0.90200132 0.21901354 3.0510652 2.8580645e-39
-1.2749658 0.27558824 3.0857863 9.4039542e-39
-1.2440927 0.27553916 3.085232 9.4039542e-39
0.84180808 0.27414215 3.069592 3.2257624e-39
0.87481833 0.27321374 3.0591967 2.8580645e-39
0.90008736 0.27250302 3.0512397 2.8580645e-39
-1.2719436 0.30834085 3.0845737 9.4039542e-39
-1.2443544 0.30813259 3.0841541 9.4039542e-39
0.84492892 0.30655509 3.0683494 2.8580645e-39
0.87542528 0.30926532 3.0587165 2.8580645e-39
0.90001601 0.30550995 3.0509975 2.8580645e-39
-1.4182402 -1.3248045 3.1436486 9.4039542e-39
-1.3756995 -1.325132 3.1302793 9.4039542e-39
-1.3270504 -1.3216867 3.11496 9.4039542e-39
-1.2906662 -1.3186616 3.1034992 9.4039542e-39
-1.2346497 -1.3190314 3.1273119 9.4039542e-39
0.76992685 -1.3210897 3.1050143 2.8580645e-39
-1.4179733 -1.2749864 3.1431651 9.4039542e-39
-1.3750647 -1.2753203 3.1296797 9.4039542e-39
-1.326116 -1.2751279 3.1142933 9.4039542e-39
-1.2904938 -1.2736962 3.1030848 9.4039542e-39
-1.2349588 -1.2749883 3.1259964 9.4039542e-39
0.7697264 -1.2757064 3.1047142 2.8580645e-39
-1.4198049 -1.2242718 3.1433356 9.4039542e-39
-1.3747538 -1.225124 3.1291804 9.4039542e-39
-1.3258274 -1.2250764 3.1138012 9.4039542e-39
-1.2905511 -1.2240189 3.102704 9.4039542e-39
-1.2349865 -1.2251081 3.1255307 9.4039542e-39
0.77394092 -1.225075 3.1029811 2.8580645e-39
-1.4202822 -1.1751176 3.1430907 9.4039542e-39
-1.3744429 -1.1749445 3.1286802 9.4039542e-39
-1.3255386 -1.1750414 3.1133091 9.4039542e-39
-1.2903638 -1.1751879 3.1022542 9.4039542e-39
-1.2350157 -1.1752478 3.125062 9.4039542e-39
0.77746338 -1.1775647 3.1014905 2.8580645e-39
-1.4200757 -1.1251292 3.1426249 9.4039542e-39
-1.3738081 -1.1251901 3.1280825 9.4039542e-39
-1.32525 -1.1250225 3.1128178 9.4039542e-39
-1.2933265 -1.1237364 3.1027732 9.4039542e-39
-1.2348311 -1.1248995 3.1252699 9.4039542e-39
0.78030747 -1.1382982 3.10028 2.8580645e-39
-1.4205025 -1.074739 3.1423557 9.4039542e-39
-1.3741403 -1.0750355 3.1277852 9.4039542e-39
-1.3249613 -1.0750204 3.1123273 9.4039542e-39
-1.2927647 -1.0761234 3.1022151 9.4039542e-39
-1.234835 -1.0745497 3.1248765 9.4039542e-39
-1.4211252 -1.0241756 3.1421461 9.4039542e-39
-1.3742507 -1.0244882 3.1274142 9.4039542e-39
-1.3254039 -1.0250287 3.1120648 9.4039542e-39
-1.2927651 -1.0269367 3.1018207 9.4039542e-39
-1.2345554 -1.025179 3.1253943 9.4039542e-39
-1.4252421 -0.97590005 3.1430531 9.4039542e-39
-1.376371 -0.97409308 3.1276765 9.4039542e-39
-1.3251156 -0.97505146 3.1115737 9.4039542e-39
-1.2925709 -0.97642255 3.1013546 9.4039542e-39
-1.2346331 -0.97531468 3.1247697 9.4039542e-39
-1.4258375 -0.92552549 3.1428366 9.4039542e-39
-1.3768528 -0.92502499 3.1274354 9.4039542e-39
-1.3248277 -0.92509043 3.1110828 9.4039542e-39
-1.2944397 -0.92968541 3.1015677 9.4039542e-39
-1.2346852 -0.92500174 3.1242256 9.4039542e-39
-1.4256303 -0.8755784 3.1423707 9.4039542e-39
-1.3764156 -0.8751747 3.1268985 9.4039542e-39
-1.3245397 -0.87514567 3.1105924 9.4039542e-39
-1.2954023 -0.87572622 3.1014376 9.4039542e-39
-1.2345244 -0.87516224 3.1243615 9.4039542e-39
-1.4257354 -0.82482111 3.1419973 9.4039542e-39
-1.375838 -0.82570022 3.1263206 9.4039542e-39
-1.3242518 -0.82521683 3.1101007 9.4039542e-39
-1.2952076 -0.82524097 3.1009719 9.4039542e-39
-1.2344344 -0.82484788 3.1242664 9.4039542e-39
-1.4519993 -0.77004302 3.1498134 9.4039542e-39
-1.4260633 -0.77446932 3.1416967 9.4039542e-39
-1.3761938 -0.77550876 3.1260295 9.4039542e-39
-1.3239635 -0.77530456 3.1096106 9.4039542e-39
-1.2950133 -0.77477098 3.1005065 9.4039542e-39
-1.2343688 -0.77501404 3.1241 9.4039542e-39
-1.4518024 -0.72448128 3.1493869 9.4039542e-39
-1.4254208 -0.72498703 3.141098 9.4039542e-39
-1.3759859 -0.72463876 3.1255565 9.4039542e-39
-1.3233496 -0.72577184 3.1090207 9.4039542e-39
-1.2948622 -0.73552656 3.1001441 9.4039542e-39
-1.2343026 -0.72518569 3.1239336 9.4039542e-39
-1.451581 -0.67323875 3.1489065 9.4039542e-39
-1.424777 -0.67552596 3.1404991 9.4039542e-39
-1.3761011 -0.67412323 3.1251881 9.4039542e-39
-1.3237089 -0.67586744 3.1087339 9.4039542e-39
-1.2343549 -0.67489421 3.1233895 9.4039542e-39
-1.4513719 -0.62485731 3.1484528 9.4039542e-39
-1.4245708 -0.62565303 3.1400347 9.4039542e-39
-1.3759494 -0.62433684 3.1247411 9.4039542e-39
-1.3235096 -0.62529361 3.1082656 9.4039542e-39
-1.2341468 -0.62508637 3.1236744 9.4039542e-39
-1.4512613 -0.59924883 3.1482129 9.4039542e-39
-1.4224215 -0.59318465 3.1390991 9.4039542e-39
-1.3721485 -0.58627224 3.1232412 9.4039542e-39
-1.321491 -0.57846946 3.1072555 9.4039542e-39
-1.2341039 -0.57479721 3.1234305 9.4039542e-39
-1.3005687 -0.54539979 3.1004143 9.4039542e-39
-1.2340614 -0.52451712 3.1231883 9.4039542e-39
-1.2340423 -0.47471392 3.1228712 9.4039542e-39
-1.2340245 -0.42492318 3.1225529 9.4039542e-39
-1.2337229 -0.37513956 3.1231353 9.4039542e-39
-1.2337739 -0.32488039 3.1225941 9.4039542e-39
-1.233637 -0.27462161 3.1226516 9.4039542e-39
-1.2336177 -0.22484739 3.1223364 9.4039542e-39
-1.2335043 -0.17510021 3.122323 9.4039542e-39
-1.2324609 -0.12612648 3.1252737 9.4039542e-39
-1.2321897 -0.076134473 3.1257594 9.4039542e-39
-1.2321222 -0.02537692 3.1255898 9.4039542e-39
-1.2320551 0.025375092 3.1254194 9.4039542e-39
-1.2319884 0.076121584 3.1252503 9.4039542e-39
-1.2321278 0.12609199 3.1244287 9.4039542e-39
-1.2318978 0.17517656 3.1247902 9.4039542e-39
-1.2317513 0.22468948 3.1248822 9.4039542e-39
-1.2316457 0.27461272 3.1248422 9.4039542e-39
-1.2310634 0.30319414 3.1264787 9.4039542e-39
-1.5763966 -1.3601886 3.1936452 9.4039542e-39
-1.5276558 -1.3573238 3.1783013 9.4039542e-39
-1.4782683 -1.3539796 3.1627507 9.4039542e-39
-1.4445329 -1.3506942 3.1521206 9.4039542e-39
-1.2165563 -1.3533392 3.1851361 9.4039542e-39
-1.5756893 -1.3250607 3.1931417 9.4039542e-39
-1.5246158 -1.3248667 3.1770856 9.4039542e-39
-1.4742092 -1.3248875 3.1612415 9.4039542e-39
-1.4444226 -1.3250016 3.1518798 9.4039542e-39
-1.220019 -1.3248765 3.1739049 9.4039542e-39
-1.574895 -1.2750777 3.1924908 9.4039542e-39
-1.5243366 -1.2748795 3.1765978 9.4039542e-39
-1.4742038 -1.2745885 3.1608372 9.4039542e-39
-1.4442143 -1.2764807 3.1514258 9.4039542e-39
-1.2196569 -1.2751925 3.1746826 9.4039542e-39
-1.5759017 -1.2251127 3.1924067 9.4039542e-39
-1.5247413 -1.224916 3.1763244 9.4039542e-39
-1.4743149 -1.2247096 3.1604722 9.4039542e-39
-1.4456736 -1.2296025 3.1515086 9.4039542e-39
-1.2198126 -1.225017 3.1738083 9.4039542e-39
-1.5748757 -1.1751596 3.191684 9.4039542e-39
-1.5239832 -1.1749489 3.1756856 9.4039542e-39
-1.4736589 -1.1748463 3.1598659 9.4039542e-39
-1.4470958 -1.1741668 3.1515112 9.4039542e-39
-1.2197509 -1.1753123 3.1736298 9.4039542e-39
-1.6020557 -1.1228827 3.1998086 9.4039542e-39
-1.5741917 -1.1248159 3.1910658 9.4039542e-39
-1.5233241 -1.1250057 3.1750782 9.4039542e-39
-1.4730015 -1.1250048 3.1592598 9.4039542e-39
-1.4468751 -1.1228212 3.1510303 9.4039542e-39
-1.2196096 -1.1251531 3.1737003 9.4039542e-39
-1.6018351 -1.0765492 3.1993685 9.4039542e-39
-1.5751987 -1.0748773 3.1909823 9.4039542e-39
-1.5244093 -1.0750791 3.1750197 9.4039542e-39
-1.4736521 -1.0747533 3.1590621 9.4039542e-39
-1.4466665 -1.0743423 3.1505761 9.4039542e-39
-1.2194681 -1.0749878 3.1737714 9.4039542e-39
-1.6015869 -1.0244392 3.1988726 9.4039542e-39
-1.5739455 -1.0253979 3.190191 9.4039542e-39
-1.5269291 -1.0250934 3.1754103 9.4039542e-39
-1.4768372 -1.0246651 3.159662 9.4039542e-39
-1.4464825 -1.0315783 3.1501756 9.4039542e-39
-1.2196015 -1.0253057 3.1729739 9.4039542e-39
-1.6013526 -0.97523868 3.1984043 9.4039542e-39
-1.57372 -0.97509551 3.1897173 9.4039542e-39
-1.5259176 -0.97545391 3.1746948 9.4039542e-39
-1.4760929 -0.97500038 3.1590292 9.4039542e-39
-1.2193639 -0.97517765 3.1733501 9.4039542e-39
-1.6028113 -0.92186707 3.1984351 9.4039542e-39
-1.5744958 -0.92477596 3.1895578 9.4039542e-39
-1.5263636 -0.92497337 3.1744299 9.4039542e-39
-1.4754463 -0.92535675 3.1584287 9.4039542e-39
-1.2194213 -0.92501694 3.1727896 9.4039542e-39
-1.6042974 -0.87428451 3.1985207 9.4039542e-39
-1.573243 -0.87535572 3.1887681 9.4039542e-39
-1.5268089 -0.87449795 3.174166 9.4039542e-39
-1.4761273 -0.87499017 3.1582391 9.4039542e-39
-1.2193824 -0.87487316 3.1725352 9.4039542e-39
-1.6040628 -0.82511133 3.1980531 9.4039542e-39
-1.5730182 -0.82509804 3.1882951 9.4039542e-39
-1.5255744 -0.82532841 3.1733835 9.4039542e-39
-1.4759589 -0.82464856 3.1577828 9.4039542e-39
-1.2191192 -0.82523853 3.1729975 9.4039542e-39
-1.6038281 -0.77595299 3.1975851 9.4039542e-39
-1.5736682 -0.7744025 3.1880929 9.4039542e-39
-1.5253575 -0.77532065 3.1729147 9.4039542e-39
-1.4778364 -0.77561897 3.1579795 9.4039542e-39
-1.2191534 -0.77557629 3.1725149 9.4039542e-39
-1.6035795 -0.72391826 3.1970897 9.4039542e-39
-1.5726496 -0.72503066 3.1873763 9.4039542e-39
-1.525779 -0.72447479 3.1726401 9.4039542e-39
-1.477928 -0.72562414 3.1576076 9.4039542e-39
-1.2192099 -0.72544885 3.1719563 9.4039542e-39
-1.609342 -0.67518616 3.1985106 9.4039542e-39
-1.5751159 -0.67487299 3.1877501 9.4039542e-39
-1.5254576 -0.6749059 3.1721416 9.4039542e-39
-1.4782536 -0.67503428 3.157304 9.4039542e-39
-1.2189975 -0.67487091 3.1722505 9.4039542e-39
-1.61006 -0.64633203 3.1985047 9.4039542e-39
-1.5739431 -0.63951093 3.1870973 9.4039542e-39
-1.5233135 -0.63301748 3.1711311 9.4039542e-39
-1.4774429 -0.62638587 3.1566598 9.4039542e-39
-1.2188578 -0.62473655 3.1723161 9.4039542e-39
-1.4579101 -0.59964722 3.150306 9.4039542e-39
-1.2189641 -0.57464314 3.1715991 9.4039542e-39
-1.2188758 -0.52455223 3.1715016 9.4039542e-39
-1.2187604 -0.47492343 3.1714952 9.4039542e-39
-1.2187686 -0.4248302 3.1710908 9.4039542e-39
-1.2181356 -0.373992 3.1727223 9.4039542e-39
-1.2171427 -0.32529488 3.175513 9.4039542e-39
